ncols         215
nrows         81
xllcorner     -99.5215149531
yllcorner     19.374242723
cellsize      0.006167
NODATA_value  -9999
-9999 -9999 -9999 -9999 -9999 -9999 -9999 -9999 -9999 -9999 -9999 -9999 -9999 -9999 -9999 -9999 -9999 -9999 -9999 -9999 -9999 -9999 -9999 -9999 -9999 -9999 -9999 -9999 -9999 -9999 -9999 -9999 -9999 -9999 -9999 -9999 -9999 -9999 -9999 -9999 -9999 -9999 -9999 -9999 -9999 -9999 -9999 -9999 -9999 -9999 -9999 -9999 -9999 -9999 -9999 -9999 -9999 -9999 -9999 -9999 -9999 -9999 -9999 -9999 2312 2299 2309 2295 2313 2317 2304 2311 2341 2329 2322 2319 2299 2287 2280 2277 2273 2274 2275 2276 2277 2279 2284 2287 2291 2300 2301 2301 2302 2311 2319 2327 2329 2330 2338 2325 2317 2315 2314 2319 2320 2321 2322 2322 2322 2322 2323 2326 2328 2328 2330 2329 2333 2335 2360 2358 2345 2344 2344 2348 2416 2402 2360 2358 2359 2361 2383 2400 2457 2448 2406 2396 2403 2416 2432 2487 2496 2517 2537 2579 2656 2656 2620 2597 2615 2654 2639 2649 2698 2605 2607 2668 2686 2717 2741 2800 2844 2942 2988 3021 3085 3130 3145 3145 3036 2957 2816 2777 2718 2694 2662 2621 2567 2555 2541 2535 2535 2535 2535 2535 2535 2534 2534 2532 2530 2536 2547 2539 2540 2540 2545 2594 2596 2597 2611 2635 2640 2640 2638 2613 2612 2627 2632 2669 2682 2723 2727 2718 2733 -9999 -9999
-9999 -9999 -9999 -9999 -9999 -9999 -9999 -9999 -9999 -9999 -9999 -9999 -9999 -9999 -9999 -9999 -9999 -9999 -9999 -9999 -9999 -9999 -9999 -9999 -9999 -9999 -9999 -9999 -9999 -9999 -9999 -9999 -9999 -9999 -9999 -9999 -9999 -9999 -9999 -9999 -9999 -9999 -9999 -9999 -9999 -9999 -9999 -9999 -9999 -9999 -9999 -9999 -9999 -9999 -9999 -9999 -9999 -9999 -9999 -9999 -9999 -9999 -9999 -9999 2299 2291 2287 2286 2306 2294 2311 2328 2339 2321 2304 2301 2291 2284 2277 2275 2272 2273 2273 2274 2275 2276 2281 2281 2287 2295 2296 2298 2295 2305 2312 2317 2317 2327 2333 2322 2316 2316 2316 2320 2321 2323 2324 2324 2324 2325 2326 2332 2343 2332 2333 2332 2333 2333 2345 2345 2341 2341 2343 2351 2395 2404 2388 2420 2380 2361 2381 2398 2420 2419 2391 2388 2410 2429 2453 2496 2530 2558 2594 2583 2635 2723 2652 2612 2658 2709 2674 2653 2686 2592 2602 2729 2720 2711 2730 2796 2831 2922 2971 3014 3057 3073 3138 3119 3019 2947 2821 2771 2713 2689 2646 2613 2549 2541 2534 2529 2534 2535 2535 2534 2536 2534 2533 2532 2535 2536 2566 2539 2542 2542 2557 2599 2603 2616 2621 2646 2657 2632 2628 2609 2611 2618 2624 2669 2692 2722 2744 2748 2728 2732 -9999
-9999 -9999 -9999 -9999 -9999 -9999 -9999 -9999 -9999 -9999 -9999 -9999 -9999 -9999 -9999 -9999 -9999 -9999 -9999 -9999 -9999 -9999 -9999 -9999 -9999 -9999 -9999 -9999 -9999 -9999 -9999 -9999 -9999 -9999 -9999 -9999 -9999 -9999 -9999 -9999 -9999 -9999 -9999 -9999 -9999 -9999 -9999 -9999 -9999 -9999 -9999 -9999 -9999 -9999 -9999 -9999 -9999 -9999 -9999 -9999 -9999 -9999 -9999 2357 2317 2302 2280 2277 2284 2304 2331 2344 2360 2350 2319 2303 2285 2281 2275 2272 2271 2271 2270 2270 2271 2273 2276 2277 2278 2281 2283 2286 2286 2294 2298 2297 2308 2314 2317 2312 2313 2326 2321 2325 2326 2326 2329 2332 2343 2390 2367 2340 2338 2338 2350 2357 2362 2353 2339 2339 2339 2342 2345 2355 2420 2440 2439 2476 2476 2425 2370 2381 2386 2381 2375 2389 2447 2480 2499 2526 2525 2532 2577 2762 2716 2737 2717 2648 2639 2687 2749 2627 2590 2568 2587 2622 2622 2660 2686 2748 2784 2871 2900 2935 2998 3015 3042 3028 2967 2926 2818 2767 2668 2641 2596 2568 2537 2537 2533 2530 2534 2534 2531 2532 2533 2535 2534 2535 2534 2538 2538 2542 2543 2549 2559 2595 2608 2628 2638 2641 2627 2607 2607 2610 2612 2618 2623 2659 2676 2720 2746 2759 2758 2760 -9999
-9999 -9999 -9999 -9999 -9999 -9999 -9999 -9999 -9999 -9999 -9999 -9999 -9999 -9999 -9999 -9999 -9999 -9999 -9999 -9999 -9999 -9999 -9999 -9999 -9999 -9999 -9999 -9999 -9999 -9999 -9999 -9999 -9999 -9999 -9999 -9999 -9999 -9999 -9999 -9999 -9999 -9999 -9999 -9999 -9999 -9999 -9999 -9999 -9999 -9999 -9999 -9999 -9999 -9999 -9999 -9999 -9999 -9999 -9999 -9999 -9999 -9999 -9999 2353 2312 2300 2280 2275 2287 2310 2339 2334 2350 2337 2315 2302 2281 2277 2271 2270 2269 2269 2269 2268 2270 2271 2275 2277 2277 2279 2280 2281 2289 2289 2296 2297 2303 2312 2314 2313 2313 2319 2319 2324 2326 2330 2331 2341 2362 2446 2387 2356 2350 2344 2374 2390 2379 2360 2343 2343 2347 2357 2350 2360 2419 2442 2477 2485 2502 2438 2376 2369 2377 2370 2374 2401 2447 2467 2483 2519 2500 2512 2578 2602 2635 2597 2600 2674 2659 2626 2628 2618 2585 2554 2567 2595 2639 2704 2702 2706 2754 2829 2853 2891 2962 2987 2996 2988 2932 2897 2802 2744 2651 2609 2560 2548 2534 2534 2532 2533 2534 2535 2529 2529 2530 2532 2534 2536 2536 2538 2540 2542 2547 2561 2573 2612 2609 2617 2624 2628 2617 2604 2605 2609 2611 2620 2628 2661 2688 2730 2746 2758 2747 2807 -9999
-9999 -9999 -9999 -9999 -9999 -9999 -9999 -9999 -9999 -9999 -9999 -9999 -9999 -9999 -9999 -9999 -9999 -9999 -9999 -9999 -9999 -9999 -9999 -9999 -9999 -9999 -9999 -9999 -9999 -9999 -9999 -9999 -9999 -9999 -9999 -9999 -9999 -9999 -9999 -9999 -9999 -9999 -9999 -9999 -9999 -9999 -9999 -9999 -9999 -9999 -9999 -9999 -9999 -9999 -9999 -9999 -9999 -9999 -9999 -9999 2494 2396 2352 2327 2306 2297 2276 2271 2274 2287 2288 2293 2322 2319 2296 2287 2274 2270 2267 2266 2267 2268 2267 2267 2268 2270 2272 2273 2275 2276 2276 2284 2291 2301 2306 2306 2302 2306 2313 2315 2316 2322 2322 2326 2332 2336 2337 2345 2363 2390 2376 2363 2357 2362 2422 2471 2396 2368 2348 2352 2354 2354 2365 2376 2416 2449 2528 2522 2502 2460 2389 2377 2375 2372 2373 2385 2413 2436 2458 2465 2459 2465 2478 2490 2513 2493 2525 2598 2673 2546 2514 2559 2548 2513 2527 2705 2853 2903 2958 2937 2851 2820 2857 2857 2880 2890 2881 2880 2825 2792 2714 2674 2597 2560 2538 2535 2528 2528 2533 2534 2532 2532 2530 2533 2535 2536 2592 2570 2566 2545 2547 2566 2574 2604 2618 2646 2645 2640 2622 2603 2610 2635 2625 2609 2614 2635 2659 2681 2700 2741 2750 2730 2774 2864 -9999
-9999 -9999 -9999 -9999 -9999 -9999 -9999 -9999 -9999 -9999 -9999 -9999 -9999 -9999 -9999 -9999 -9999 -9999 -9999 -9999 -9999 -9999 -9999 -9999 -9999 -9999 -9999 -9999 -9999 -9999 -9999 -9999 -9999 -9999 -9999 -9999 -9999 -9999 -9999 -9999 -9999 -9999 -9999 -9999 -9999 -9999 -9999 -9999 -9999 -9999 -9999 -9999 -9999 -9999 -9999 -9999 -9999 -9999 2511 2565 2497 2379 2335 2319 2293 2284 2271 2269 2269 2276 2280 2289 2317 2314 2294 2285 2272 2268 2264 2264 2267 2267 2266 2268 2268 2270 2272 2273 2274 2276 2276 2286 2292 2305 2305 2309 2311 2307 2317 2318 2324 2324 2326 2332 2349 2345 2342 2354 2365 2376 2368 2360 2363 2372 2412 2428 2387 2366 2351 2354 2359 2360 2381 2392 2423 2446 2507 2524 2470 2464 2402 2420 2408 2388 2371 2383 2403 2416 2429 2439 2439 2434 2439 2453 2460 2476 2489 2540 2563 2489 2488 2498 2493 2495 2548 2757 2858 2876 2894 3061 2994 2927 2886 2843 2830 2824 2811 2824 2773 2735 2661 2632 2566 2542 2535 2535 2529 2528 2534 2532 2528 2532 2535 2534 2535 2535 2651 2626 2603 2560 2555 2593 2620 2662 2664 2691 2699 2692 2667 2612 2616 2644 2641 2613 2616 2635 2645 2688 2711 2719 2736 2752 2768 2820 -9999
-9999 -9999 -9999 -9999 -9999 -9999 -9999 -9999 -9999 -9999 -9999 -9999 -9999 -9999 -9999 -9999 -9999 -9999 -9999 -9999 -9999 -9999 -9999 -9999 -9999 -9999 -9999 -9999 -9999 -9999 -9999 -9999 -9999 -9999 -9999 -9999 -9999 -9999 -9999 -9999 -9999 -9999 -9999 -9999 -9999 -9999 -9999 -9999 -9999 -9999 -9999 -9999 -9999 -9999 -9999 -9999 -9999 -9999 2374 2345 2351 2327 2305 2299 2291 2284 2269 2265 2264 2262 2266 2276 2305 2303 2289 2283 2268 2266 2264 2265 2266 2267 2267 2269 2270 2270 2270 2273 2273 2275 2277 2286 2290 2296 2302 2316 2322 2321 2329 2332 2345 2352 2352 2371 2381 2370 2367 2358 2356 2365 2369 2372 2382 2382 2379 2379 2366 2362 2359 2361 2369 2380 2446 2452 2441 2438 2428 2423 2414 2408 2401 2407 2398 2392 2368 2369 2383 2394 2414 2455 2456 2467 2481 2475 2458 2444 2439 2444 2445 2452 2450 2453 2460 2470 2514 2742 2771 2688 2872 3204 3173 3204 3037 2844 2703 2679 2673 2669 2667 2638 2579 2563 2537 2534 2537 2540 2570 2555 2546 2541 2537 2536 2537 2537 2537 2537 2574 2613 2643 2651 2677 2679 2672 2749 2723 2757 2790 2893 2872 2697 2646 2655 2651 2614 2618 2648 2670 2705 2712 2731 2744 -9999 -9999 -9999 -9999
-9999 -9999 -9999 -9999 -9999 -9999 -9999 -9999 -9999 -9999 -9999 -9999 -9999 -9999 -9999 -9999 -9999 -9999 -9999 -9999 -9999 -9999 -9999 -9999 -9999 -9999 -9999 -9999 -9999 -9999 -9999 -9999 -9999 -9999 -9999 -9999 -9999 -9999 -9999 -9999 -9999 -9999 -9999 -9999 -9999 -9999 -9999 -9999 -9999 -9999 -9999 -9999 -9999 -9999 -9999 -9999 -9999 -9999 2345 2313 2330 2346 2308 2286 2283 2281 2267 2264 2263 2261 2261 2267 2296 2301 2291 2285 2266 2263 2266 2265 2266 2266 2266 2266 2268 2269 2272 2272 2274 2277 2279 2285 2289 2303 2307 2315 2328 2335 2339 2342 2354 2368 2375 2381 2402 2399 2394 2377 2370 2363 2367 2377 2378 2378 2377 2379 2375 2376 2379 2387 2374 2390 2459 2477 2465 2458 2434 2421 2402 2398 2394 2397 2395 2384 2370 2370 2379 2401 2431 2468 2472 2489 2524 2574 2528 2468 2451 2437 2438 2441 2443 2448 2453 2467 2511 2724 2738 2643 2821 3046 3046 3106 3004 2859 2876 2756 2610 2597 2589 2575 2558 2547 2533 2540 2552 2563 2603 2598 2600 2587 2542 2538 2540 2536 2540 2537 2564 2620 2666 2674 2691 2692 2691 2724 2741 2772 2793 2839 2802 2693 2648 2662 2651 2616 2619 2647 2698 2715 2721 2740 2749 -9999 -9999 -9999 -9999
-9999 -9999 -9999 -9999 -9999 -9999 -9999 -9999 -9999 -9999 -9999 -9999 -9999 -9999 -9999 -9999 -9999 -9999 -9999 -9999 -9999 -9999 -9999 -9999 -9999 -9999 -9999 -9999 -9999 -9999 -9999 -9999 -9999 -9999 -9999 -9999 -9999 -9999 -9999 -9999 -9999 -9999 -9999 -9999 -9999 -9999 -9999 -9999 -9999 -9999 -9999 -9999 -9999 -9999 -9999 -9999 -9999 -9999 -9999 2289 2330 2316 2291 2275 2261 2258 2259 2261 2260 2259 2258 2260 2263 2266 2279 2281 2265 2264 2265 2265 2266 2266 2269 2268 2267 2268 2268 2269 2271 2277 2278 2290 2302 2325 2334 2325 2348 2379 2397 2365 2359 2408 2399 2400 2437 2490 2444 2387 2374 2388 2397 2398 2408 2403 2400 2398 2424 2444 2434 2430 2392 2404 2478 2505 2468 2448 2419 2409 2412 2406 2405 2425 2438 2412 2382 2379 2390 2404 2424 2498 2509 2533 2588 2757 2619 2492 2468 2445 2448 2492 2463 2443 2444 2477 2525 2605 2569 2657 2713 2721 2882 3047 3022 3062 2906 2812 2578 2546 2536 2532 2534 2537 2555 2578 2591 2621 2729 2778 2774 2740 2597 2563 2593 2542 2558 2569 2629 2696 2665 2692 2711 2819 2749 2776 2766 2774 2759 2743 2732 2670 2659 2678 2641 2621 2623 2629 2641 2707 2728 2716 2727 -9999 -9999 -9999 -9999
-9999 -9999 -9999 -9999 -9999 -9999 -9999 -9999 -9999 -9999 -9999 -9999 -9999 -9999 -9999 -9999 -9999 -9999 -9999 -9999 -9999 -9999 -9999 -9999 -9999 -9999 -9999 -9999 -9999 -9999 -9999 -9999 -9999 -9999 -9999 -9999 -9999 -9999 -9999 -9999 -9999 -9999 -9999 -9999 -9999 -9999 -9999 -9999 -9999 -9999 -9999 -9999 -9999 -9999 -9999 -9999 -9999 -9999 2295 2276 2291 2281 2269 2259 2250 2248 2252 2259 2261 2260 2258 2259 2260 2261 2266 2267 2262 2264 2264 2264 2266 2266 2269 2269 2267 2268 2268 2269 2272 2276 2279 2296 2309 2331 2340 2344 2352 2395 2399 2368 2359 2397 2393 2404 2426 2505 2443 2383 2391 2400 2418 2409 2423 2426 2415 2411 2441 2491 2458 2446 2394 2427 2474 2484 2455 2437 2408 2403 2406 2408 2420 2444 2452 2423 2390 2387 2400 2410 2426 2490 2513 2543 2576 2720 2626 2502 2477 2449 2450 2472 2460 2444 2444 2454 2491 2486 2502 2673 2679 2635 2717 2874 2874 3008 2697 2629 2542 2534 2536 2533 2536 2543 2562 2576 2616 2636 2778 2881 2896 2805 2616 2572 2556 2540 2561 2586 2637 2640 2652 2684 2708 2755 2733 2724 2761 2833 2787 2737 2713 2658 2659 2712 2648 2626 2631 2633 2638 2674 2689 2699 2705 -9999 -9999 -9999 -9999
-9999 -9999 -9999 -9999 -9999 -9999 -9999 -9999 -9999 -9999 -9999 -9999 -9999 -9999 -9999 -9999 -9999 -9999 -9999 -9999 -9999 -9999 -9999 -9999 -9999 -9999 -9999 -9999 -9999 -9999 -9999 -9999 -9999 -9999 -9999 -9999 -9999 -9999 -9999 -9999 -9999 -9999 -9999 -9999 -9999 -9999 -9999 -9999 -9999 -9999 -9999 -9999 -9999 -9999 -9999 -9999 -9999 2257 2258 2259 2254 2249 2248 2247 2245 2245 2247 2250 2266 2260 2258 2259 2257 2260 2261 2263 2265 2264 2264 2265 2265 2266 2268 2268 2266 2267 2270 2270 2271 2279 2284 2301 2314 2340 2353 2376 2384 2399 2407 2389 2382 2370 2383 2390 2394 2421 2404 2426 2437 2460 2464 2441 2456 2474 2464 2462 2450 2444 2423 2414 2406 2424 2471 2519 2448 2430 2408 2402 2401 2412 2462 2496 2465 2443 2424 2427 2402 2407 2419 2460 2496 2554 2576 2584 2570 2519 2488 2471 2476 2483 2475 2450 2445 2446 2448 2458 2478 2503 2509 2530 2517 2541 2553 2565 2515 2521 2542 2572 2562 2581 2603 2640 2626 2644 2695 2745 2861 2866 2791 2753 2618 2573 2542 2542 2543 2546 2576 2617 2613 2644 2673 2712 2748 2746 2712 2812 2786 2737 2726 2687 2682 2758 2673 2637 2641 2651 2651 2688 2675 2704 2715 -9999 -9999 -9999 -9999
-9999 -9999 -9999 -9999 -9999 -9999 -9999 -9999 -9999 -9999 -9999 -9999 -9999 -9999 -9999 -9999 -9999 -9999 -9999 -9999 -9999 -9999 -9999 -9999 -9999 -9999 -9999 -9999 -9999 -9999 -9999 -9999 -9999 -9999 -9999 -9999 -9999 -9999 -9999 -9999 -9999 -9999 -9999 -9999 -9999 -9999 -9999 -9999 -9999 -9999 -9999 -9999 -9999 -9999 -9999 -9999 2253 2252 2252 2250 2247 2246 2246 2246 2245 2245 2247 2247 2266 2259 2258 2259 2260 2262 2263 2262 2266 2266 2266 2265 2267 2270 2267 2267 2269 2271 2272 2272 2272 2280 2285 2302 2312 2337 2353 2384 2405 2430 2440 2399 2385 2372 2374 2385 2390 2409 2409 2413 2432 2478 2489 2452 2479 2501 2521 2510 2477 2463 2431 2412 2419 2424 2456 2469 2442 2427 2411 2410 2404 2430 2465 2481 2457 2447 2444 2443 2413 2404 2414 2453 2481 2524 2545 2553 2549 2510 2486 2487 2498 2494 2482 2454 2446 2448 2448 2457 2472 2489 2489 2504 2487 2489 2497 2503 2542 2549 2553 2579 2592 2635 2675 2721 2650 2690 2700 2728 2807 2803 2713 2679 2600 2568 2544 2542 2545 2547 2556 2579 2596 2671 2684 2745 2815 2764 2725 2809 2835 2813 2755 2689 2687 2796 2699 2644 2651 2663 2665 2731 2764 2769 -9999 -9999 -9999 -9999 -9999
-9999 -9999 -9999 -9999 -9999 -9999 -9999 -9999 -9999 -9999 -9999 -9999 -9999 -9999 -9999 -9999 -9999 -9999 -9999 -9999 -9999 -9999 -9999 -9999 -9999 -9999 -9999 -9999 -9999 -9999 -9999 -9999 -9999 -9999 -9999 -9999 -9999 -9999 -9999 -9999 -9999 -9999 -9999 -9999 -9999 -9999 -9999 -9999 -9999 -9999 -9999 -9999 -9999 -9999 -9999 2249 2247 2246 2246 2247 2247 2245 2245 2245 2245 2246 2248 2247 2259 2259 2260 2261 2260 2263 2263 2263 2269 2273 2268 2267 2268 2281 2269 2269 2276 2280 2288 2287 2277 2282 2287 2308 2317 2342 2356 2390 2421 2469 2467 2416 2397 2382 2374 2403 2409 2410 2421 2423 2429 2477 2497 2476 2491 2522 2592 2604 2513 2481 2437 2424 2432 2441 2456 2459 2440 2430 2419 2422 2407 2422 2447 2450 2440 2435 2450 2469 2420 2407 2411 2440 2458 2488 2509 2525 2521 2497 2488 2511 2520 2507 2487 2452 2445 2444 2449 2455 2462 2466 2469 2476 2482 2504 2511 2531 2569 2579 2569 2578 2623 2640 2722 2704 2638 2644 2637 2678 2717 2713 2650 2624 2591 2578 2582 2550 2557 2565 2556 2567 2618 2690 2714 2729 2778 2744 2706 2813 2896 2853 2819 2725 2708 2734 2685 2660 2669 2679 2683 2760 2816 2921 -9999 -9999 -9999 -9999 -9999
-9999 -9999 -9999 -9999 -9999 -9999 -9999 -9999 -9999 -9999 -9999 -9999 -9999 -9999 -9999 -9999 -9999 -9999 -9999 -9999 -9999 -9999 -9999 -9999 -9999 -9999 -9999 -9999 -9999 -9999 -9999 -9999 -9999 -9999 -9999 -9999 -9999 -9999 -9999 -9999 -9999 -9999 -9999 -9999 -9999 -9999 -9999 -9999 -9999 -9999 -9999 -9999 -9999 2250 2250 2248 2247 2248 2247 2245 2245 2245 2245 2245 2245 2246 2249 2253 2255 2256 2257 2258 2262 2264 2264 2262 2267 2267 2261 2261 2261 2261 2264 2275 2311 2331 2304 2290 2274 2286 2297 2308 2317 2348 2369 2413 2436 2552 2568 2449 2428 2392 2391 2434 2444 2452 2429 2449 2449 2478 2484 2503 2525 2550 2610 2645 2539 2499 2471 2446 2454 2482 2510 2482 2447 2439 2426 2415 2406 2409 2420 2423 2429 2424 2424 2423 2408 2409 2414 2432 2444 2483 2505 2535 2521 2481 2498 2554 2577 2529 2489 2450 2449 2446 2449 2465 2481 2514 2519 2543 2559 2576 2577 2568 2581 2600 2613 2624 2630 2626 2630 2612 2575 2572 2546 2539 2561 2557 2555 2557 2552 2563 2689 2671 2586 2581 2590 2632 2664 2687 2670 2682 2685 2688 2720 2778 2828 2809 2834 2783 2776 2746 2778 2811 2802 2776 2812 2803 2890 -9999 -9999 -9999 -9999 -9999 -9999
-9999 -9999 -9999 -9999 -9999 -9999 -9999 -9999 -9999 -9999 -9999 -9999 -9999 -9999 -9999 -9999 -9999 -9999 -9999 -9999 -9999 -9999 -9999 -9999 -9999 -9999 -9999 -9999 -9999 -9999 -9999 -9999 -9999 -9999 -9999 -9999 -9999 -9999 -9999 -9999 -9999 -9999 -9999 -9999 -9999 -9999 -9999 -9999 -9999 -9999 -9999 2287 2264 2250 2250 2249 2247 2248 2247 2247 2245 2245 2245 2245 2245 2246 2251 2252 2254 2253 2255 2255 2258 2259 2261 2261 2261 2259 2259 2257 2255 2256 2258 2269 2312 2335 2296 2281 2272 2292 2306 2307 2319 2349 2368 2426 2448 2521 2512 2445 2423 2397 2421 2449 2456 2485 2442 2458 2467 2489 2515 2525 2528 2543 2570 2574 2534 2518 2464 2448 2458 2478 2488 2471 2447 2441 2418 2406 2403 2408 2418 2433 2462 2438 2419 2414 2414 2417 2425 2443 2457 2482 2510 2539 2522 2476 2493 2562 2615 2515 2482 2449 2447 2450 2459 2494 2508 2536 2546 2579 2602 2625 2616 2594 2603 2619 2647 2658 2650 2623 2573 2560 2548 2540 2514 2510 2521 2520 2525 2528 2571 2590 2691 2739 2636 2638 2633 2643 2678 2672 2665 2686 2686 2689 2712 2724 2778 2785 2783 2745 2732 2774 2815 2858 2867 2853 2918 2818 2901 -9999 -9999 -9999 -9999 -9999 -9999
-9999 -9999 -9999 -9999 -9999 -9999 -9999 -9999 -9999 -9999 -9999 -9999 -9999 -9999 -9999 -9999 -9999 -9999 -9999 -9999 -9999 -9999 -9999 -9999 -9999 -9999 -9999 -9999 -9999 -9999 -9999 -9999 -9999 -9999 -9999 -9999 -9999 -9999 -9999 -9999 -9999 -9999 -9999 -9999 -9999 -9999 -9999 -9999 -9999 2313 2312 2291 2281 2252 2250 2249 2249 2248 2248 2247 2245 2246 2245 2245 2245 2248 2251 2251 2251 2252 2252 2252 2253 2253 2256 2257 2252 2249 2248 2248 2250 2251 2250 2251 2264 2267 2267 2261 2263 2279 2282 2306 2317 2345 2356 2391 2416 2449 2464 2453 2438 2420 2436 2460 2473 2472 2457 2478 2495 2527 2543 2587 2621 2594 2593 2597 2531 2521 2485 2477 2460 2455 2449 2442 2441 2422 2397 2395 2399 2409 2430 2445 2442 2434 2435 2440 2438 2443 2453 2470 2487 2571 2509 2497 2488 2467 2484 2542 2555 2492 2464 2452 2454 2460 2471 2507 2535 2579 2604 2684 2726 2789 2736 2698 2657 2677 2829 2800 2696 2665 2584 2544 2511 2498 2480 2479 2484 2488 2526 2576 2607 2660 2848 2916 2759 2703 2672 2705 2712 2678 2688 2714 2736 2753 2736 2700 2703 2793 2841 2716 2721 2773 2830 2923 2995 3097 3053 2990 2939 3042 -9999 -9999 -9999 -9999 -9999
-9999 -9999 -9999 -9999 -9999 -9999 -9999 -9999 -9999 -9999 -9999 -9999 -9999 -9999 -9999 -9999 -9999 -9999 -9999 -9999 -9999 -9999 -9999 -9999 -9999 -9999 -9999 -9999 -9999 -9999 -9999 -9999 -9999 -9999 -9999 -9999 -9999 -9999 -9999 -9999 -9999 -9999 -9999 -9999 -9999 -9999 2384 2345 2326 2297 2294 2295 2285 2252 2250 2249 2249 2247 2248 2248 2248 2248 2247 2247 2247 2250 2251 2250 2251 2252 2251 2251 2252 2252 2253 2255 2250 2248 2246 2246 2250 2250 2249 2250 2251 2253 2255 2255 2256 2267 2277 2301 2312 2333 2341 2373 2389 2426 2439 2439 2432 2424 2431 2446 2473 2493 2479 2511 2511 2547 2574 2639 2659 2644 2613 2583 2544 2525 2495 2478 2464 2453 2434 2427 2415 2404 2393 2391 2398 2405 2430 2434 2433 2432 2444 2451 2452 2456 2464 2475 2486 2504 2485 2472 2464 2461 2476 2516 2516 2472 2455 2454 2453 2462 2478 2520 2558 2611 2640 2731 2786 2846 2788 2745 2680 2692 2838 2783 2691 2654 2584 2555 2501 2490 2475 2476 2478 2481 2515 2587 2673 2695 2827 2919 2808 2779 2753 2725 2812 2792 2785 2741 2758 2853 2784 2713 2702 2745 2807 2714 2719 2819 2856 2951 3018 3163 3206 3031 3009 3037 -9999 -9999 -9999 -9999 -9999
-9999 -9999 -9999 -9999 -9999 -9999 -9999 -9999 -9999 -9999 -9999 -9999 -9999 -9999 -9999 -9999 -9999 -9999 -9999 -9999 -9999 -9999 -9999 -9999 -9999 -9999 -9999 -9999 -9999 -9999 -9999 -9999 -9999 -9999 -9999 -9999 -9999 -9999 -9999 -9999 -9999 -9999 2663 2528 2473 2404 2377 2315 2304 2280 2273 2281 2273 2254 2253 2251 2249 2248 2248 2248 2248 2247 2249 2248 2248 2247 2248 2251 2251 2250 2251 2251 2252 2253 2250 2249 2249 2249 2247 2246 2245 2246 2247 2246 2247 2248 2248 2247 2250 2258 2270 2288 2288 2310 2323 2348 2367 2401 2407 2405 2412 2448 2487 2463 2476 2496 2516 2660 2628 2669 2695 2812 2828 2812 2738 2669 2584 2537 2503 2488 2474 2461 2423 2416 2404 2396 2391 2393 2405 2412 2427 2436 2452 2456 2455 2463 2476 2478 2489 2495 2497 2514 2486 2456 2456 2452 2456 2497 2490 2452 2453 2451 2454 2478 2495 2541 2569 2643 2699 2809 2916 2937 2851 2773 2673 2666 2766 2724 2672 2638 2558 2537 2493 2478 2474 2473 2498 2541 2563 2609 2812 2802 2799 2810 2821 2727 2702 2736 2826 2756 2731 2749 2775 2787 2759 2730 2726 2715 2710 2710 2716 2876 2923 2918 2974 3113 3170 3213 3153 3175 -9999 -9999 -9999 -9999 -9999
-9999 -9999 -9999 -9999 -9999 -9999 -9999 -9999 -9999 -9999 -9999 -9999 -9999 -9999 -9999 -9999 -9999 -9999 -9999 -9999 -9999 -9999 -9999 -9999 -9999 -9999 -9999 -9999 -9999 -9999 -9999 -9999 -9999 -9999 -9999 -9999 -9999 -9999 -9999 -9999 -9999 2744 2670 2536 2492 2362 2330 2304 2288 2271 2268 2267 2262 2255 2254 2251 2251 2250 2250 2248 2248 2247 2247 2249 2247 2245 2246 2248 2251 2250 2252 2252 2251 2251 2250 2250 2247 2248 2245 2245 2246 2245 2245 2246 2250 2247 2247 2247 2247 2254 2261 2274 2281 2308 2309 2335 2353 2379 2389 2393 2412 2463 2533 2500 2515 2482 2512 2600 2600 2771 2788 2928 2919 2919 2810 2721 2614 2570 2526 2514 2519 2482 2431 2409 2399 2393 2392 2392 2414 2418 2434 2441 2458 2467 2468 2471 2486 2500 2566 2533 2502 2481 2469 2460 2457 2452 2452 2458 2460 2452 2454 2454 2456 2484 2504 2563 2593 2662 2717 2836 2918 2908 2849 2779 2654 2632 2675 2665 2639 2609 2551 2525 2487 2476 2473 2472 2491 2515 2572 2663 2830 2838 2812 2785 2787 2711 2702 2712 2749 2731 2726 2742 2754 2769 2760 2730 2723 2720 2712 2715 2721 2839 2862 2903 2934 3077 3144 3280 3233 -9999 -9999 -9999 -9999 -9999 -9999
-9999 -9999 -9999 -9999 -9999 -9999 -9999 -9999 -9999 -9999 -9999 -9999 -9999 -9999 -9999 -9999 -9999 -9999 -9999 -9999 -9999 -9999 -9999 -9999 -9999 -9999 -9999 -9999 -9999 -9999 -9999 -9999 -9999 -9999 -9999 -9999 -9999 2651 2684 2860 -9999 2700 2666 2571 2555 2472 2383 2305 2288 2276 2273 2260 2259 2275 2258 2253 2253 2251 2251 2248 2248 2249 2248 2248 2247 2246 2243 2242 2250 2251 2250 2249 2251 2250 2249 2249 2245 2244 2245 2245 2245 2246 2247 2245 2250 2249 2248 2249 2247 2250 2252 2257 2265 2282 2283 2309 2326 2351 2357 2408 2447 2516 2534 2544 2532 2470 2452 2510 2546 2637 2754 2956 2985 2998 2915 2845 2644 2601 2529 2496 2512 2491 2432 2402 2388 2394 2392 2392 2402 2415 2441 2451 2473 2481 2490 2495 2512 2522 2532 2513 2501 2480 2475 2476 2465 2451 2452 2452 2451 2453 2453 2454 2453 2490 2512 2563 2593 2661 2713 2783 2790 2819 2784 2706 2601 2582 2589 2597 2574 2547 2507 2492 2479 2473 2471 2471 2485 2510 2722 2815 2907 2950 2818 2786 2719 2697 2718 2733 2742 2755 2751 2756 2760 2793 2862 2777 2722 2710 2711 2726 2741 2799 2823 2872 2917 3067 3091 3231 -9999 -9999 -9999 -9999 -9999 -9999 -9999
-9999 -9999 -9999 -9999 -9999 -9999 -9999 -9999 -9999 -9999 -9999 -9999 -9999 -9999 -9999 -9999 -9999 -9999 -9999 -9999 -9999 -9999 -9999 -9999 -9999 -9999 -9999 -9999 -9999 -9999 -9999 -9999 -9999 -9999 -9999 -9999 2563 2575 2656 2768 2826 2643 2561 2474 2462 2439 2371 2309 2291 2269 2273 2265 2268 2282 2277 2256 2252 2251 2250 2250 2249 2248 2247 2248 2247 2247 2242 2243 2248 2248 2248 2248 2249 2250 2249 2247 2244 2244 2244 2244 2245 2244 2247 2243 2247 2247 2248 2251 2252 2252 2254 2257 2263 2276 2282 2309 2317 2332 2352 2401 2443 2488 2521 2522 2514 2461 2440 2480 2512 2645 2718 2866 2908 2914 2850 2803 2644 2570 2488 2464 2482 2469 2411 2387 2398 2413 2402 2394 2405 2420 2448 2460 2485 2490 2498 2501 2520 2529 2534 2522 2510 2491 2485 2477 2466 2456 2450 2450 2452 2454 2452 2455 2453 2481 2506 2552 2573 2630 2719 2729 2738 2739 2724 2680 2579 2558 2555 2557 2530 2515 2490 2476 2472 2470 2470 2473 2492 2524 2784 2877 2958 2933 2789 2762 2725 2699 2738 2756 2780 2798 2788 2777 2771 2789 2819 2761 2726 2712 2714 2726 2756 2799 2816 2893 2905 2994 3048 3187 -9999 -9999 -9999 -9999 -9999 -9999 -9999
-9999 -9999 -9999 -9999 -9999 -9999 -9999 -9999 -9999 -9999 -9999 -9999 -9999 -9999 -9999 -9999 -9999 -9999 -9999 -9999 -9999 -9999 -9999 -9999 -9999 -9999 -9999 -9999 -9999 -9999 -9999 -9999 -9999 -9999 2622 2548 2485 2516 2539 2696 2843 2570 2520 2425 2393 2357 2402 2334 2308 2281 2270 2261 2259 2267 2269 2255 2252 2251 2251 2251 2250 2248 2248 2249 2247 2247 2246 2245 2245 2246 2247 2248 2248 2246 2244 2243 2244 2245 2243 2244 2244 2245 2247 2247 2246 2245 2245 2247 2246 2250 2251 2259 2266 2275 2281 2293 2301 2324 2332 2394 2397 2431 2448 2482 2453 2423 2408 2430 2432 2510 2532 2680 2736 2765 2712 2625 2507 2451 2462 2426 2432 2422 2385 2371 2393 2416 2424 2402 2406 2422 2469 2490 2506 2498 2503 2508 2529 2555 2555 2566 2545 2515 2502 2473 2468 2463 2457 2452 2454 2456 2456 2455 2455 2458 2464 2499 2523 2596 2634 2642 2646 2606 2588 2579 2527 2513 2498 2493 2472 2469 2464 2466 2467 2468 2486 2507 2595 2733 2838 2878 2773 2742 2709 2691 2665 2698 2771 2809 2852 2912 2921 2854 2786 2781 2780 2759 2756 2735 2726 2737 2810 2838 2958 3094 3112 3224 3226 3208 3202 -9999 -9999 -9999 -9999 -9999 -9999
-9999 -9999 -9999 -9999 -9999 -9999 -9999 -9999 -9999 -9999 -9999 -9999 -9999 -9999 -9999 -9999 -9999 -9999 -9999 -9999 -9999 -9999 -9999 -9999 -9999 -9999 -9999 -9999 -9999 -9999 -9999 -9999 -9999 2816 2548 2494 2462 2489 2526 2706 2875 2577 2463 2408 2385 2378 2337 2329 2304 2294 2285 2270 2259 2257 2257 2253 2252 2252 2252 2249 2249 2248 2249 2248 2248 2247 2246 2246 2243 2245 2246 2247 2246 2245 2243 2241 2243 2246 2244 2242 2244 2246 2246 2244 2245 2244 2245 2246 2245 2250 2251 2261 2263 2275 2284 2310 2313 2325 2338 2420 2447 2430 2455 2489 2455 2425 2405 2409 2408 2446 2461 2587 2629 2640 2610 2542 2444 2414 2418 2400 2404 2402 2372 2367 2380 2393 2452 2401 2403 2418 2463 2486 2504 2491 2493 2504 2531 2548 2559 2564 2543 2503 2489 2475 2475 2470 2467 2458 2454 2455 2458 2456 2456 2457 2460 2473 2493 2570 2584 2599 2603 2567 2547 2531 2507 2501 2480 2474 2467 2468 2466 2467 2468 2468 2541 2577 2661 2761 2844 2803 2735 2700 2679 2666 2660 2714 2772 2804 2855 2971 3036 2834 2791 2790 2802 2827 2856 2766 2774 2788 2797 2863 2909 2972 2996 3179 3193 3106 3098 -9999 -9999 -9999 -9999 -9999 -9999
-9999 -9999 -9999 -9999 -9999 -9999 -9999 -9999 -9999 -9999 -9999 -9999 -9999 -9999 -9999 -9999 -9999 -9999 -9999 -9999 -9999 -9999 -9999 -9999 -9999 -9999 -9999 -9999 -9999 -9999 -9999 -9999 2678 2590 2461 2461 2443 2486 2602 2584 2705 2582 2454 2430 2487 2382 2370 2321 2290 2275 2267 2261 2261 2255 2253 2252 2251 2252 2251 2250 2252 2250 2249 2248 2247 2247 2246 2245 2243 2243 2243 2245 2245 2244 2243 2243 2247 2246 2245 2244 2244 2245 2245 2246 2245 2245 2246 2245 2245 2250 2251 2257 2260 2270 2277 2308 2310 2355 2344 2362 2375 2393 2423 2450 2441 2409 2392 2380 2377 2382 2383 2383 2381 2382 2371 2363 2361 2359 2361 2363 2359 2359 2353 2355 2355 2362 2379 2377 2403 2424 2492 2474 2518 2514 2495 2510 2530 2541 2544 2541 2527 2498 2496 2528 2512 2518 2522 2503 2479 2457 2458 2461 2458 2459 2460 2462 2463 2491 2512 2539 2539 2511 2498 2489 2475 2471 2467 2466 2466 2466 2470 2475 2470 2486 2593 2625 2677 2705 2710 2681 2714 2669 2624 2619 2656 2678 2744 2773 2810 2839 2833 2801 2840 2883 2889 2891 2916 2935 2927 2902 2860 2819 2845 2914 2940 3013 3117 3084 3014 3048 -9999 -9999 -9999 -9999 -9999
-9999 -9999 -9999 -9999 -9999 -9999 -9999 -9999 -9999 -9999 -9999 -9999 -9999 -9999 -9999 -9999 -9999 -9999 -9999 -9999 -9999 -9999 -9999 -9999 -9999 -9999 -9999 -9999 -9999 -9999 -9999 -9999 2522 2497 2425 2425 2477 2519 2614 2497 2623 2621 2467 2372 2436 2349 2318 2316 2307 2266 2263 2261 2260 2255 2253 2251 2251 2251 2251 2251 2250 2248 2249 2250 2247 2248 2246 2245 2242 2242 2242 2244 2244 2244 2244 2243 2247 2246 2244 2244 2245 2245 2246 2246 2246 2245 2246 2245 2247 2251 2256 2262 2262 2271 2276 2294 2306 2348 2339 2353 2362 2375 2397 2439 2432 2405 2391 2370 2367 2362 2358 2346 2342 2337 2330 2329 2339 2342 2344 2346 2346 2343 2347 2347 2349 2355 2367 2374 2402 2418 2439 2447 2482 2481 2483 2494 2514 2527 2552 2562 2532 2500 2505 2520 2523 2567 2581 2534 2495 2474 2475 2482 2460 2461 2461 2463 2464 2469 2488 2516 2512 2486 2480 2477 2469 2467 2470 2469 2465 2466 2466 2468 2468 2479 2587 2592 2638 2635 2641 2670 2697 2643 2602 2623 2645 2661 2722 2743 2754 2782 2781 2785 2754 2858 2872 2907 2917 2938 2955 2963 2931 2867 2843 2856 2920 2993 3030 3003 3004 3033 2968 -9999 -9999 -9999 -9999
-9999 -9999 -9999 -9999 -9999 -9999 -9999 -9999 -9999 -9999 -9999 -9999 -9999 -9999 -9999 -9999 -9999 -9999 -9999 -9999 -9999 -9999 -9999 -9999 -9999 -9999 -9999 -9999 -9999 2473 2567 2578 2472 2428 2425 2396 2375 2404 2417 2427 2509 2403 2442 2329 2330 2310 2307 2278 2292 2265 2262 2262 2260 2254 2255 2252 2251 2251 2250 2252 2252 2259 2269 2277 2266 2253 2251 2251 2246 2244 2243 2244 2244 2244 2244 2244 2245 2245 2242 2244 2245 2246 2244 2245 2245 2248 2252 2260 2265 2271 2274 2273 2267 2268 2274 2288 2300 2330 2335 2333 2332 2360 2380 2465 2541 2401 2374 2362 2349 2339 2334 2316 2310 2307 2308 2311 2321 2322 2326 2329 2334 2338 2343 2346 2351 2356 2367 2372 2385 2393 2434 2493 2486 2462 2474 2481 2499 2528 2582 2539 2522 2524 2534 2558 2575 2754 2766 2677 2537 2499 2495 2460 2462 2462 2462 2466 2465 2466 2465 2478 2478 2469 2466 2465 2465 2463 2465 2465 2460 2465 2463 2467 2475 2485 2521 2545 2558 2570 2608 2682 2648 2588 2585 2592 2616 2630 2658 2672 2684 2690 2654 2604 2673 2896 2902 2922 2920 2941 2957 2964 2959 2942 2916 2873 2902 3022 2981 3049 3013 2996 3018 -9999 -9999 -9999 -9999
-9999 -9999 -9999 -9999 -9999 -9999 -9999 -9999 -9999 -9999 -9999 -9999 -9999 -9999 -9999 -9999 -9999 -9999 -9999 -9999 -9999 -9999 -9999 -9999 -9999 -9999 -9999 -9999 2451 2435 2465 2484 2477 2407 2430 2440 2356 2373 2384 2386 2424 2379 2359 2324 2304 2283 2289 2270 2271 2265 2263 2259 2258 2254 2254 2252 2252 2251 2250 2250 2258 2286 2311 2318 2301 2272 2269 2282 2245 2244 2244 2244 2243 2244 2243 2244 2244 2244 2242 2245 2244 2245 2246 2247 2246 2248 2259 2268 2275 2280 2279 2270 2267 2269 2273 2286 2299 2331 2352 2319 2330 2353 2391 2450 2486 2397 2358 2357 2345 2330 2326 2310 2306 2304 2306 2310 2317 2319 2326 2329 2336 2340 2348 2350 2354 2359 2368 2374 2383 2392 2428 2462 2469 2456 2476 2487 2504 2512 2530 2525 2531 2553 2566 2582 2598 2818 2806 2721 2546 2481 2470 2462 2462 2464 2465 2467 2467 2466 2467 2470 2471 2467 2467 2464 2465 2466 2465 2465 2464 2465 2467 2470 2480 2485 2527 2537 2546 2560 2611 2661 2604 2563 2563 2576 2611 2605 2622 2641 2644 2620 2586 2594 2663 2895 2906 2914 2922 2918 2947 2987 2964 2900 2895 2925 2896 3014 3031 3040 3019 3066 -9999 -9999 -9999 -9999 -9999
-9999 -9999 -9999 -9999 -9999 -9999 -9999 -9999 -9999 -9999 -9999 -9999 -9999 -9999 -9999 -9999 -9999 -9999 -9999 -9999 -9999 -9999 -9999 -9999 -9999 2463 2460 2465 2426 2401 2413 2406 2428 2383 2373 2348 2355 2337 2358 2374 2403 2321 2301 2308 2287 2274 2270 2269 2268 2263 2262 2260 2259 2256 2255 2255 2254 2251 2251 2251 2255 2280 2307 2326 2323 2316 2312 2298 2244 2243 2245 2245 2245 2245 2243 2243 2244 2243 2243 2244 2244 2245 2244 2243 2247 2246 2252 2266 2280 2289 2289 2279 2274 2274 2274 2294 2333 2353 2330 2305 2315 2346 2351 2356 2359 2332 2318 2316 2320 2317 2311 2303 2301 2300 2305 2307 2314 2318 2325 2330 2342 2345 2354 2358 2367 2369 2377 2381 2391 2398 2416 2424 2444 2454 2476 2502 2533 2545 2566 2595 2603 2716 2768 2768 2671 2757 2732 2733 2668 2575 2540 2471 2477 2471 2469 2469 2470 2469 2470 2467 2469 2467 2467 2466 2466 2466 2466 2467 2470 2471 2471 2485 2497 2512 2511 2515 2540 2549 2557 2550 2528 2530 2550 2561 2568 2563 2612 2611 2585 2562 2549 2584 2604 2707 2829 2799 2879 2894 2922 2947 2909 2914 2904 2788 2790 2948 2946 2908 2953 2985 2998 -9999 -9999 -9999 -9999
-9999 -9999 -9999 -9999 -9999 -9999 -9999 -9999 -9999 -9999 -9999 -9999 -9999 -9999 -9999 -9999 -9999 -9999 -9999 -9999 -9999 -9999 -9999 -9999 2453 2463 2425 2455 2442 2418 2391 2387 2404 2405 2367 2337 2334 2323 2342 2335 2336 2313 2304 2285 2279 2273 2273 2271 2273 2265 2262 2259 2258 2256 2256 2255 2255 2253 2253 2250 2254 2285 2312 2329 2297 2292 2299 2262 2244 2244 2245 2245 2243 2245 2244 2244 2243 2244 2244 2244 2244 2244 2244 2244 2245 2247 2256 2267 2282 2292 2291 2285 2282 2281 2281 2292 2317 2352 2344 2302 2334 2345 2328 2329 2351 2314 2304 2305 2305 2310 2305 2300 2297 2300 2304 2306 2312 2315 2324 2338 2359 2357 2356 2361 2374 2378 2385 2391 2397 2403 2421 2429 2449 2462 2493 2510 2551 2569 2591 2643 2662 2858 2929 2811 2790 2730 2697 2701 2696 2669 2606 2527 2516 2480 2474 2471 2473 2472 2471 2468 2469 2468 2469 2468 2467 2467 2468 2470 2479 2482 2495 2503 2522 2573 2540 2521 2524 2527 2528 2525 2521 2522 2542 2556 2546 2554 2593 2610 2579 2553 2543 2560 2592 2649 2754 2677 2759 2890 2910 2886 2860 2903 2938 2784 2750 2922 2872 2856 2906 2927 2950 -9999 -9999 -9999 -9999
-9999 -9999 -9999 -9999 -9999 -9999 -9999 -9999 -9999 -9999 -9999 -9999 -9999 -9999 -9999 -9999 -9999 -9999 -9999 -9999 -9999 -9999 2529 2493 2503 2481 2465 2445 2404 2392 2409 2391 2378 2368 2370 2359 2337 2321 2309 2300 2300 2294 2283 2294 2288 2275 2273 2272 2271 2266 2263 2262 2260 2258 2258 2255 2254 2251 2251 2249 2255 2280 2282 2279 2257 2251 2249 2246 2243 2244 2242 2244 2243 2243 2243 2245 2245 2246 2245 2244 2245 2244 2245 2246 2250 2251 2270 2290 2299 2312 2312 2311 2309 2302 2300 2284 2283 2295 2302 2289 2301 2299 2294 2293 2288 2282 2281 2284 2287 2294 2293 2293 2294 2296 2300 2303 2309 2314 2336 2354 2378 2379 2371 2371 2382 2389 2403 2409 2421 2427 2456 2467 2479 2486 2514 2529 2593 2617 2646 2733 2785 2877 2879 2853 2821 2819 2837 2737 2726 2599 2570 2533 2519 2490 2483 2476 2476 2475 2474 2473 2472 2471 2469 2469 2473 2478 2489 2498 2580 2680 2781 2680 2568 2606 2574 2531 2511 2510 2512 2514 2517 2516 2526 2531 2529 2533 2583 2625 2604 2548 2535 2534 2542 2573 2581 2561 2600 2798 2740 2743 2815 2906 2846 2760 2684 2802 2816 2766 2808 3027 3065 -9999 -9999 -9999 -9999
-9999 -9999 -9999 -9999 -9999 -9999 -9999 -9999 -9999 -9999 -9999 -9999 -9999 -9999 -9999 -9999 -9999 -9999 -9999 -9999 -9999 2549 2515 2515 2483 2469 2444 2433 2402 2411 2407 2412 2395 2395 2379 2370 2364 2348 2337 2310 2301 2289 2287 2306 2295 2277 2273 2268 2268 2266 2266 2263 2261 2257 2257 2254 2253 2253 2252 2250 2255 2263 2265 2260 2251 2249 2244 2244 2243 2244 2245 2244 2243 2243 2244 2244 2246 2245 2245 2246 2246 2245 2245 2247 2251 2260 2288 2306 2312 2322 2328 2325 2320 2310 2306 2289 2279 2278 2282 2281 2283 2281 2279 2279 2276 2275 2277 2280 2283 2286 2289 2292 2295 2297 2301 2303 2309 2315 2337 2357 2385 2387 2382 2388 2386 2396 2409 2420 2436 2452 2503 2515 2514 2520 2555 2559 2614 2646 2679 2757 2805 2866 2857 2844 2831 2858 2788 2828 2782 2647 2609 2550 2529 2489 2482 2478 2479 2476 2475 2475 2473 2472 2472 2474 2478 2484 2504 2517 2658 2723 2742 2688 2591 2629 2579 2531 2509 2509 2510 2511 2514 2513 2514 2518 2523 2530 2584 2604 2610 2559 2539 2529 2529 2540 2544 2547 2613 2784 2705 2760 2817 2844 2785 2708 2655 2810 2785 2739 2789 2950 2961 3123 3229 -9999 -9999
-9999 -9999 -9999 -9999 -9999 -9999 -9999 -9999 -9999 -9999 -9999 -9999 -9999 -9999 -9999 -9999 -9999 -9999 -9999 2601 2567 2567 2579 2556 2519 2492 2462 2463 2456 2459 2431 2411 2384 2378 2359 2349 2324 2318 2327 2310 2311 2329 2316 2290 2283 2285 2280 2292 2277 2269 2268 2263 2261 2257 2258 2258 2258 2252 2252 2252 2251 2253 2254 2256 2249 2249 2245 2242 2243 2244 2246 2246 2244 2241 2244 2244 2244 2245 2247 2247 2246 2248 2251 2255 2270 2287 2322 2329 2344 2339 2341 2349 2342 2327 2316 2293 2283 2267 2268 2268 2268 2266 2265 2269 2272 2275 2274 2279 2282 2286 2288 2294 2299 2302 2306 2307 2315 2321 2342 2351 2373 2394 2404 2408 2404 2418 2426 2422 2441 2464 2514 2531 2559 2589 2644 2662 2665 2712 2733 2818 2876 2912 2911 2857 2825 2783 2759 2727 2739 2734 2645 2766 2641 2496 2484 2484 2483 2480 2479 2476 2475 2479 2483 2483 2477 2486 2533 2563 2791 2855 2767 2707 2601 2576 2539 2522 2509 2508 2508 2509 2523 2514 2510 2511 2519 2529 2642 2588 2562 2583 2557 2524 2524 2523 2526 2571 2635 2688 2620 2692 2714 2699 2725 2655 2618 2765 2801 2695 2724 2803 2865 3057 3184 3340 -9999
-9999 -9999 -9999 -9999 -9999 -9999 -9999 -9999 -9999 -9999 -9999 -9999 -9999 -9999 -9999 -9999 -9999 -9999 2639 2590 2612 2592 2589 2556 2507 2519 2497 2484 2463 2445 2404 2386 2373 2359 2343 2341 2356 2343 2326 2323 2334 2317 2299 2290 2295 2291 2298 2278 2270 2269 2267 2264 2262 2258 2258 2258 2257 2254 2253 2250 2250 2251 2252 2251 2249 2246 2244 2244 2244 2244 2245 2247 2246 2242 2243 2242 2244 2244 2246 2248 2250 2251 2262 2274 2295 2309 2349 2348 2368 2360 2356 2361 2352 2332 2320 2293 2281 2265 2263 2262 2264 2266 2267 2270 2270 2274 2275 2279 2281 2288 2289 2295 2299 2301 2310 2311 2320 2325 2337 2346 2371 2396 2413 2418 2422 2420 2444 2447 2448 2479 2514 2554 2572 2601 2635 2645 2722 2763 2805 2965 2942 2946 2943 2873 2838 2778 2750 2698 2674 2675 2624 2639 2594 2505 2490 2486 2485 2483 2481 2478 2478 2477 2479 2478 2486 2491 2550 2619 2798 2852 2757 2693 2604 2568 2533 2520 2508 2508 2508 2509 2515 2511 2509 2510 2514 2524 2563 2550 2542 2557 2564 2526 2522 2523 2524 2552 2597 2671 2610 2664 2655 2680 2621 2617 2612 2764 2796 2683 2712 2788 2850 3017 3193 -9999 -9999
-9999 -9999 -9999 -9999 -9999 -9999 -9999 -9999 -9999 -9999 -9999 -9999 -9999 -9999 -9999 -9999 -9999 -9999 2593 2644 2644 2627 2577 2571 2523 2504 2487 2469 2467 2449 2425 2412 2398 2402 2378 2357 2335 2337 2338 2321 2314 2319 2330 2314 2308 2287 2283 2270 2272 2272 2269 2276 2274 2263 2259 2255 2255 2254 2252 2250 2252 2248 2249 2247 2247 2247 2244 2245 2246 2247 2244 2246 2245 2246 2243 2242 2242 2244 2246 2246 2248 2256 2280 2290 2314 2331 2377 2389 2403 2425 2407 2377 2360 2332 2319 2293 2280 2262 2260 2262 2263 2263 2261 2265 2272 2291 2285 2288 2291 2296 2295 2300 2308 2307 2314 2320 2319 2323 2333 2339 2365 2379 2418 2433 2459 2464 2469 2487 2498 2506 2581 2585 2607 2622 2670 2721 2775 2865 2920 3028 2987 2989 3021 2862 2802 2747 2718 2661 2649 2632 2621 2588 2560 2521 2510 2491 2490 2487 2487 2480 2482 2478 2480 2482 2495 2516 2599 2678 2758 2691 2634 2604 2565 2552 2522 2513 2507 2506 2505 2506 2507 2508 2507 2508 2509 2509 2513 2516 2517 2522 2523 2519 2520 2519 2520 2523 2538 2563 2592 2586 2580 2637 2591 2566 2682 2698 2722 2653 2679 2743 2788 3083 -9999 -9999 -9999
-9999 -9999 -9999 -9999 -9999 -9999 -9999 -9999 -9999 -9999 -9999 -9999 -9999 -9999 -9999 -9999 -9999 2677 2642 2666 2649 2608 2583 2560 2537 2539 2517 2499 2460 2451 2432 2411 2429 2411 2358 2355 2351 2343 2345 2322 2344 2347 2332 2331 2307 2277 2268 2273 2278 2273 2274 2280 2276 2263 2258 2258 2257 2254 2252 2251 2251 2247 2249 2249 2248 2247 2247 2244 2243 2246 2246 2246 2244 2245 2243 2244 2245 2246 2246 2247 2247 2253 2280 2294 2322 2339 2388 2406 2428 2460 2431 2373 2356 2329 2319 2293 2282 2265 2260 2262 2263 2261 2262 2264 2276 2289 2287 2297 2302 2309 2310 2303 2307 2311 2311 2319 2329 2337 2350 2350 2380 2402 2431 2438 2464 2487 2507 2501 2528 2534 2598 2613 2637 2629 2661 2687 2750 2842 2934 2953 2950 2971 3036 2832 2774 2724 2696 2644 2634 2617 2620 2565 2549 2541 2523 2494 2493 2493 2492 2484 2482 2488 2486 2488 2505 2559 2720 2716 2690 2654 2604 2581 2546 2534 2517 2510 2507 2506 2505 2505 2506 2507 2506 2506 2508 2509 2510 2512 2512 2515 2517 2518 2518 2518 2518 2518 2522 2548 2584 2620 2570 2570 2560 2602 2734 2655 2735 2645 2671 2714 2778 -9999 -9999 -9999 -9999
-9999 -9999 -9999 -9999 -9999 -9999 -9999 -9999 -9999 -9999 -9999 -9999 -9999 -9999 -9999 -9999 2631 2629 2731 2687 2659 2628 2615 2606 2586 2557 2520 2498 2485 2483 2456 2431 2399 2408 2407 2381 2390 2376 2356 2366 2372 2348 2341 2313 2313 2295 2289 2279 2283 2295 2294 2269 2266 2262 2262 2256 2254 2253 2252 2252 2247 2247 2247 2249 2245 2249 2247 2246 2246 2247 2246 2246 2242 2242 2245 2242 2244 2246 2245 2246 2246 2248 2269 2284 2318 2339 2394 2427 2478 2561 2485 2360 2339 2312 2304 2282 2270 2260 2259 2260 2260 2260 2260 2266 2268 2282 2290 2323 2336 2355 2361 2384 2349 2338 2329 2327 2334 2342 2374 2398 2433 2466 2493 2492 2491 2506 2554 2556 2570 2578 2641 2664 2680 2691 2769 2845 2954 2980 2973 2923 2913 2909 2912 2806 2764 2699 2686 2633 2619 2600 2587 2559 2547 2529 2521 2502 2502 2498 2497 2492 2487 2497 2500 2499 2517 2563 2712 2699 2601 2585 2558 2543 2524 2520 2511 2509 2506 2505 2505 2506 2509 2509 2508 2508 2510 2510 2510 2511 2512 2513 2514 2515 2515 2516 2517 2520 2521 2530 2544 2583 2547 2542 2550 2586 2601 2628 2644 2709 2675 -9999 -9999 -9999 -9999 -9999 -9999
-9999 -9999 -9999 -9999 -9999 -9999 -9999 -9999 -9999 -9999 -9999 -9999 -9999 -9999 -9999 -9999 2632 2650 2703 2671 2650 2648 2646 2615 2572 2553 2528 2526 2497 2494 2444 2434 2427 2411 2381 2370 2402 2374 2381 2382 2375 2356 2353 2322 2327 2287 2276 2289 2286 2299 2283 2270 2274 2277 2269 2257 2254 2253 2251 2252 2248 2248 2246 2248 2246 2249 2247 2244 2246 2246 2246 2246 2242 2242 2243 2242 2244 2244 2246 2245 2244 2246 2254 2270 2304 2326 2387 2420 2462 2475 2430 2351 2329 2301 2291 2271 2265 2259 2259 2260 2258 2259 2259 2265 2272 2288 2299 2349 2369 2390 2398 2408 2378 2360 2341 2339 2327 2341 2366 2389 2428 2465 2501 2512 2520 2544 2574 2582 2585 2605 2667 2678 2703 2741 2798 2843 2992 2955 2897 2906 2894 2868 2848 2787 2760 2726 2721 2648 2618 2586 2569 2559 2547 2532 2527 2507 2506 2502 2501 2495 2489 2497 2501 2502 2521 2565 2640 2637 2585 2567 2541 2533 2519 2515 2509 2507 2505 2505 2507 2511 2523 2526 2512 2510 2509 2510 2511 2511 2512 2512 2513 2514 2515 2516 2519 2527 2525 2526 2530 2538 2536 2540 2555 2591 2613 2666 2709 -9999 -9999 -9999 -9999 -9999 -9999 -9999 -9999
-9999 -9999 -9999 -9999 -9999 -9999 -9999 -9999 -9999 -9999 -9999 -9999 -9999 -9999 -9999 2689 2639 2708 2678 2697 2618 2605 2589 2571 2594 2584 2549 2544 2494 2484 2466 2461 2424 2418 2388 2397 2397 2378 2366 2370 2384 2367 2359 2336 2312 2282 2290 2292 2304 2282 2277 2288 2288 2280 2267 2256 2254 2252 2252 2251 2250 2249 2247 2248 2247 2249 2247 2245 2248 2246 2246 2246 2241 2241 2242 2242 2244 2243 2243 2243 2244 2245 2249 2258 2294 2316 2364 2390 2404 2395 2370 2332 2321 2293 2285 2270 2268 2261 2260 2259 2259 2257 2258 2269 2280 2325 2343 2373 2406 2463 2472 2453 2407 2384 2355 2349 2337 2335 2350 2361 2426 2464 2509 2522 2542 2574 2608 2610 2603 2625 2680 2694 2724 2761 2862 2895 2946 2886 2847 2874 2864 2831 2797 2753 2745 2758 2742 2642 2601 2571 2563 2555 2543 2526 2518 2513 2511 2507 2502 2496 2490 2500 2501 2502 2517 2547 2590 2595 2570 2552 2537 2526 2515 2512 2508 2506 2506 2507 2510 2520 2558 2563 2526 2514 2509 2509 2511 2511 2512 2512 2512 2513 2514 2519 2540 2569 2557 2548 2542 2561 2575 2546 2558 2599 -9999 -9999 -9999 -9999 -9999 -9999 -9999 -9999 -9999 -9999 -9999
-9999 -9999 -9999 -9999 -9999 -9999 -9999 -9999 -9999 -9999 -9999 -9999 -9999 -9999 2743 2759 2741 2737 2701 2658 2621 2621 2563 2536 2485 2461 2445 2441 2447 2454 2464 2442 2414 2415 2380 2365 2344 2333 2328 2322 2320 2319 2320 2309 2311 2321 2318 2327 2305 2312 2304 2281 2269 2256 2255 2253 2251 2252 2253 2250 2250 2253 2253 2251 2248 2253 2253 2254 2254 2254 2251 2247 2246 2244 2243 2244 2241 2243 2243 2243 2243 2244 2247 2247 2265 2282 2315 2345 2352 2321 2311 2290 2289 2298 2287 2279 2268 2259 2258 2257 2256 2256 2258 2290 2328 2382 2395 2413 2460 2627 2732 2646 2518 2428 2378 2373 2368 2359 2359 2382 2422 2433 2482 2514 2564 2585 2630 2643 2650 2659 2682 2705 2748 2782 2914 2963 2901 2821 2797 2806 2777 2759 2739 2676 2670 2664 2649 2601 2576 2558 2555 2539 2526 2520 2523 2519 2517 2514 2510 2502 2494 2513 2517 2536 2594 2552 2540 2540 2526 2521 2516 2514 2512 2511 2510 2509 2504 2508 2512 2521 2564 2566 2543 2518 2509 2508 2508 2509 2510 2511 2512 2513 2513 2531 2557 2632 2675 2730 2717 -9999 -9999 -9999 -9999 -9999 -9999 -9999 -9999 -9999 -9999 -9999 -9999 -9999 -9999 -9999 -9999
-9999 -9999 -9999 -9999 -9999 -9999 -9999 -9999 -9999 -9999 -9999 -9999 -9999 2817 2770 2753 2768 2762 2670 2661 2664 2632 2580 2557 2496 2463 2452 2430 2414 2414 2414 2407 2398 2383 2363 2357 2354 2360 2363 2343 2328 2312 2311 2313 2344 2340 2348 2341 2328 2298 2283 2267 2262 2256 2255 2254 2253 2254 2252 2251 2251 2257 2258 2255 2263 2269 2260 2262 2261 2263 2259 2251 2248 2245 2244 2246 2241 2242 2243 2243 2242 2243 2246 2248 2256 2270 2295 2317 2322 2293 2287 2278 2275 2311 2290 2277 2267 2257 2258 2254 2255 2257 2267 2304 2400 2372 2406 2435 2464 2567 2666 2564 2483 2467 2407 2408 2370 2373 2365 2403 2423 2437 2488 2510 2609 2604 2632 2648 2662 2662 2698 2705 2822 2845 2961 2893 2837 2784 2766 2760 2735 2729 2709 2659 2649 2613 2608 2584 2573 2544 2539 2529 2527 2528 2526 2525 2522 2518 2511 2501 2495 2527 2541 2569 2659 2571 2526 2522 2515 2514 2513 2513 2511 2510 2505 2503 2507 2510 2512 2516 2549 2558 2527 2514 2510 2509 2509 2510 2510 2510 2511 2511 2513 2533 2557 2644 2738 2818 2776 -9999 -9999 -9999 -9999 -9999 -9999 -9999 -9999 -9999 -9999 -9999 -9999 -9999 -9999 -9999 -9999
-9999 -9999 -9999 -9999 -9999 -9999 -9999 -9999 -9999 -9999 -9999 2883 2855 2800 2806 2747 2798 2775 2766 2749 2681 2657 2582 2557 2579 2548 2511 2488 2460 2435 2394 2387 2389 2377 2377 2371 2336 2331 2354 2329 2330 2343 2327 2313 2311 2343 2354 2325 2303 2280 2276 2279 2277 2261 2259 2254 2255 2256 2257 2254 2259 2293 2293 2323 2383 2363 2310 2317 2302 2290 2313 2285 2260 2256 2251 2248 2244 2243 2242 2243 2242 2243 2245 2245 2248 2250 2266 2272 2271 2259 2257 2255 2254 2264 2277 2271 2267 2256 2255 2254 2253 2259 2265 2286 2305 2361 2420 2447 2409 2503 2507 2612 2663 2585 2477 2453 2398 2439 2373 2391 2422 2433 2463 2494 2531 2553 2647 2703 2724 2713 2739 2748 2820 2886 2819 2810 2774 2753 2725 2707 2691 2673 2678 2630 2617 2595 2585 2572 2570 2560 2547 2538 2534 2537 2536 2534 2530 2524 2516 2504 2499 2526 2553 2568 2578 2574 2543 2510 2501 2501 2507 2507 2502 2500 2501 2505 2506 2506 2506 2506 2512 2515 2509 2506 2507 2508 2508 2508 2509 2510 2511 2510 2509 2523 2548 2674 2772 -9999 -9999 -9999 -9999 -9999 -9999 -9999 -9999 -9999 -9999 -9999 -9999 -9999 -9999 -9999 -9999 -9999 -9999
-9999 -9999 -9999 -9999 -9999 -9999 -9999 -9999 -9999 -9999 -9999 2892 2858 2846 2789 2740 2773 2749 2750 2720 2669 2628 2611 2587 2575 2550 2500 2491 2442 2449 2414 2402 2378 2366 2346 2339 2344 2369 2343 2351 2363 2356 2339 2318 2321 2355 2359 2334 2315 2287 2283 2276 2270 2260 2259 2262 2262 2269 2260 2258 2267 2327 2318 2334 2435 2472 2343 2361 2333 2313 2336 2299 2276 2274 2263 2251 2246 2245 2244 2243 2242 2242 2244 2246 2246 2249 2252 2252 2255 2251 2252 2250 2249 2249 2260 2268 2266 2255 2256 2254 2254 2259 2266 2288 2324 2349 2405 2411 2403 2476 2485 2617 2632 2556 2504 2511 2420 2443 2418 2381 2415 2431 2468 2479 2506 2527 2646 2733 2800 2787 2799 2795 2862 2845 2816 2783 2755 2738 2729 2699 2684 2661 2659 2621 2611 2604 2591 2572 2561 2548 2542 2543 2539 2542 2541 2536 2535 2526 2518 2508 2506 2512 2536 2553 2568 2564 2539 2509 2505 2503 2502 2500 2501 2505 2501 2500 2500 2500 2502 2500 2505 2506 2507 2507 2507 2507 2507 2509 2509 2510 2511 2510 2510 2520 2541 2622 -9999 -9999 -9999 -9999 -9999 -9999 -9999 -9999 -9999 -9999 -9999 -9999 -9999 -9999 -9999 -9999 -9999 -9999 -9999
-9999 -9999 -9999 -9999 -9999 -9999 -9999 -9999 -9999 -9999 2963 2887 2866 2826 2796 2829 2789 2770 2692 2670 2640 2611 2576 2580 2538 2519 2486 2477 2445 2448 2439 2433 2396 2371 2366 2359 2371 2344 2356 2397 2387 2382 2385 2374 2351 2350 2327 2298 2294 2321 2342 2291 2272 2261 2259 2273 2280 2314 2272 2274 2293 2367 2461 2463 2461 2486 2529 2462 2380 2387 2384 2400 2349 2316 2268 2255 2251 2246 2244 2242 2242 2243 2243 2242 2245 2243 2243 2244 2243 2244 2243 2244 2245 2248 2250 2251 2251 2252 2259 2270 2268 2265 2272 2322 2327 2371 2395 2385 2428 2406 2388 2435 2451 2466 2549 2548 2464 2463 2435 2500 2420 2420 2463 2480 2508 2542 2591 2641 2805 2834 2818 2838 2921 2869 2817 2793 2789 2805 2788 2707 2676 2644 2641 2629 2620 2607 2592 2569 2562 2557 2557 2552 2551 2552 2550 2546 2536 2530 2529 2513 2509 2502 2501 2502 2512 2510 2505 2509 2520 2520 2516 2516 2515 2514 2511 2509 2509 2509 2509 2508 2508 2507 2507 2508 2508 2509 2510 2509 2509 2509 2509 2509 2510 2518 2527 -9999 -9999 -9999 -9999 -9999 -9999 -9999 -9999 -9999 -9999 -9999 -9999 -9999 -9999 -9999 -9999 -9999 -9999 -9999 -9999
-9999 -9999 -9999 -9999 -9999 -9999 -9999 -9999 -9999 -9999 2953 2852 2818 2807 2851 2855 2806 2768 2693 2666 2628 2615 2594 2576 2585 2558 2494 2498 2480 2432 2412 2402 2378 2377 2389 2390 2359 2370 2388 2379 2364 2381 2389 2374 2367 2333 2311 2301 2292 2303 2332 2357 2345 2271 2261 2312 2291 2333 2285 2280 2307 2371 2456 2598 2527 2541 2617 2510 2415 2454 2478 2547 2400 2372 2300 2273 2254 2248 2243 2244 2243 2242 2243 2242 2241 2241 2242 2241 2240 2239 2240 2240 2241 2245 2247 2249 2250 2251 2265 2287 2279 2266 2270 2326 2363 2394 2362 2356 2386 2371 2368 2405 2431 2473 2556 2523 2569 2537 2522 2556 2433 2441 2475 2497 2541 2537 2572 2602 2687 2772 2828 2827 2848 2829 2809 2830 2832 2857 2793 2697 2670 2654 2640 2627 2612 2609 2594 2570 2560 2560 2560 2560 2559 2557 2556 2542 2537 2541 2534 2517 2515 2509 2501 2502 2502 2504 2515 2511 2523 2523 2518 2519 2519 2519 2515 2513 2513 2511 2509 2510 2510 2509 2508 2508 2508 2509 2511 2510 2511 2510 2509 2510 2512 2516 2521 -9999 -9999 -9999 -9999 -9999 -9999 -9999 -9999 -9999 -9999 -9999 -9999 -9999 -9999 -9999 -9999 -9999 -9999 -9999 -9999
-9999 -9999 -9999 -9999 -9999 -9999 -9999 -9999 3023 2965 2947 2808 2780 2790 2799 2745 2771 2778 2733 2713 2677 2655 2610 2583 2547 2561 2512 2459 2492 2490 2462 2457 2414 2436 2441 2422 2376 2380 2368 2411 2413 2406 2374 2371 2369 2352 2355 2331 2316 2331 2324 2340 2305 2280 2269 2317 2310 2302 2290 2325 2374 2597 2557 2640 2731 2754 2725 2733 2542 2637 2777 2595 2457 2403 2359 2318 2261 2254 2247 2244 2243 2241 2240 2240 2239 2239 2238 2238 2238 2237 2238 2240 2241 2245 2246 2248 2250 2251 2286 2296 2296 2265 2265 2329 2430 2435 2376 2325 2315 2324 2351 2357 2348 2374 2369 2431 2445 2457 2579 2563 2473 2480 2524 2563 2563 2582 2618 2628 2676 2695 2778 2781 2814 2799 2846 2898 2887 2808 2761 2710 2691 2648 2640 2597 2597 2585 2577 2578 2581 2587 2586 2584 2568 2568 2559 2564 2563 2559 2544 2532 2529 2520 2515 2520 2529 2529 2528 2525 2525 2528 2528 2528 2528 2526 2522 2523 2521 2520 2514 2512 2511 2511 2511 2511 2510 2511 2512 2512 2512 2511 2511 2510 2514 2516 -9999 -9999 -9999 -9999 -9999 -9999 -9999 -9999 -9999 -9999 -9999 -9999 -9999 -9999 -9999 -9999 -9999 -9999 -9999 -9999 -9999
-9999 -9999 -9999 -9999 -9999 -9999 -9999 3170 3049 2988 2897 2882 2816 2752 2716 2737 2710 2714 2743 2714 2657 2669 2634 2605 2546 2546 2488 2469 2520 2510 2465 2433 2429 2454 2421 2404 2423 2413 2385 2412 2398 2414 2401 2399 2390 2378 2349 2338 2338 2372 2349 2341 2322 2295 2271 2271 2279 2307 2306 2342 2390 2633 2717 2710 2818 2887 2857 2752 2667 2718 2710 2571 2438 2427 2454 2321 2272 2259 2246 2245 2243 2241 2237 2240 2239 2239 2238 2239 2237 2237 2238 2240 2240 2245 2245 2247 2249 2250 2260 2276 2276 2261 2262 2297 2335 2488 2417 2314 2306 2315 2404 2362 2329 2325 2355 2410 2389 2398 2499 2498 2524 2532 2526 2583 2630 2648 2689 2703 2764 2815 2787 2795 2895 2870 2847 2898 2917 2881 2863 2770 2764 2660 2627 2600 2601 2603 2596 2584 2597 2620 2607 2587 2569 2568 2562 2572 2569 2554 2545 2539 2534 2527 2525 2523 2534 2533 2535 2536 2519 2529 2535 2533 2534 2532 2528 2528 2527 2527 2520 2514 2511 2511 2513 2512 2512 2513 2513 2512 2512 2512 2512 2512 2514 2517 -9999 -9999 -9999 -9999 -9999 -9999 -9999 -9999 -9999 -9999 -9999 -9999 -9999 -9999 -9999 -9999 -9999 -9999 -9999 -9999 -9999
-9999 3546 3560 3475 3430 3397 3368 3112 3036 2989 2928 2941 2815 2858 2787 2733 2711 2659 2630 2643 2653 2586 2568 2564 2512 2494 2500 2522 2533 2498 2451 2496 2448 2426 2424 2443 2430 2431 2421 2368 2353 2373 2380 2383 2340 2348 2345 2314 2345 2363 2346 2308 2324 2276 2273 2306 2325 2312 2363 2367 2392 2521 2569 2564 2589 2709 2657 2610 2780 2780 2744 2744 2638 2502 2382 2438 2309 2262 2243 2242 2242 2247 2234 2232 2235 2237 2238 2236 2237 2238 2239 2240 2241 2243 2244 2248 2249 2250 2252 2255 2256 2256 2259 2285 2342 2381 2439 2286 2287 2288 2294 2325 2318 2304 2340 2333 2332 2357 2451 2429 2535 2541 2571 2606 2669 2681 2730 2759 2911 2843 2891 2969 2977 2970 2930 2880 2852 2803 2798 2746 2676 2637 2633 2620 2620 2638 2635 2603 2623 2662 2630 2580 2589 2587 2595 2585 2573 2560 2556 2551 2547 2544 2545 2536 2545 2543 2538 2541 2544 2531 2547 2546 2542 2541 2539 2539 2537 2541 2533 2523 2517 2515 2514 2513 2515 2515 2515 2515 2515 2515 -9999 2520 2537 -9999 -9999 -9999 -9999 -9999 -9999 -9999 -9999 -9999 -9999 -9999 -9999 -9999 -9999 -9999 -9999 -9999 -9999 -9999 -9999 -9999 -9999
-9999 3508 3513 3495 3458 3352 3320 3103 3026 2973 2961 2901 2834 2922 2832 2822 2791 2769 2745 2724 2650 2618 2557 2512 2501 2565 2569 2572 2542 2514 2502 2496 2437 2467 2431 2459 2450 2441 2403 2382 2391 2330 2340 2385 2339 2322 2321 2297 2315 2298 2317 2284 2280 2305 2300 2370 2354 2319 2370 2450 2442 2606 2584 2472 2578 2678 2635 2565 2607 2723 2641 2644 2501 2506 2383 2394 2273 2249 2242 2242 2239 2237 2235 2233 2233 2232 2237 2236 2236 2237 2238 2238 2240 2243 2244 2249 2249 2251 2252 2251 2253 2255 2256 2284 2343 2306 2323 2278 2282 2283 2284 2303 2299 2297 2309 2311 2323 2356 2416 2426 2548 2558 2574 2603 2648 2678 2722 2765 2916 2855 2845 2880 2944 2953 2909 2859 2805 2801 2745 2724 2677 2650 2629 2666 2646 2653 2647 2612 2656 2647 2622 2587 2612 2593 2596 2597 2586 2567 2564 2560 2555 2551 2553 2549 2551 2549 2541 2541 2545 2539 2548 2547 2546 2546 2544 2544 2542 2542 2538 2531 2521 2518 2516 2514 2515 2517 2517 2516 -9999 -9999 -9999 -9999 -9999 -9999 -9999 -9999 -9999 -9999 -9999 -9999 -9999 -9999 -9999 -9999 -9999 -9999 -9999 -9999 -9999 -9999 -9999 -9999 -9999 -9999 -9999
-9999 3487 3490 3448 3359 3236 3205 3107 3137 3094 3061 2934 2895 2964 2885 2860 2862 2786 2749 2724 2649 2611 2632 2640 2582 2587 2619 2584 2522 2499 2490 2479 2502 2481 2475 2489 2456 2437 2425 2476 2471 2384 2335 2315 2333 2290 2291 2276 2274 2317 2277 2271 2263 2285 2316 2515 2422 2360 2398 2541 2647 2587 2452 2381 2494 2528 2647 2549 2436 2412 2420 2558 2479 2413 2314 2281 2254 2248 2241 2243 2238 2236 2233 2232 2232 2232 2237 2237 2237 2236 2236 2238 2239 2243 2243 2244 2246 2246 2247 2250 2251 2254 2258 2262 2269 2267 2266 2272 2275 2276 2280 2286 2290 2296 2318 2335 2373 2394 2391 2415 2470 2514 2605 2622 2647 2671 2717 2733 2787 2825 2853 2873 2936 2902 2863 2837 2785 2750 2709 2693 2671 2639 2646 2702 2697 2681 2645 2698 2689 2646 2618 2643 2634 2604 2621 2602 2589 2592 2594 2581 2576 2566 2566 2568 2558 2562 2555 2552 2552 2555 2548 2556 2555 2558 2562 2560 2554 2555 2550 2544 2537 2531 2527 2525 -9999 -9999 -9999 -9999 -9999 -9999 -9999 -9999 -9999 -9999 -9999 -9999 -9999 -9999 -9999 -9999 -9999 -9999 -9999 -9999 -9999 -9999 -9999 -9999 -9999 -9999 -9999 -9999 -9999 -9999 -9999
-9999 -9999 3568 3413 3352 3282 3209 3169 3198 3224 3129 2901 2973 2965 2876 2904 2892 2812 2737 2712 2641 2640 2668 2629 2623 2641 2586 2554 2502 2497 2487 2526 2508 2501 2495 2485 2430 2443 2498 2512 2433 2363 2345 2296 2301 2285 2284 2278 2272 2322 2301 2259 2259 2341 2372 2496 2521 2372 2397 2499 2529 2436 2375 2362 2428 2480 2618 2574 2438 2384 2363 2458 2397 2380 2314 2287 2251 2246 2242 2240 2238 2238 2233 2232 2233 2233 2236 2236 2237 2235 2234 2237 2237 2242 2242 2243 2244 2244 2247 2250 2250 2255 2256 2261 2262 2267 2266 2270 2272 2283 2284 2287 2303 2324 2339 2361 2395 2404 2407 2414 2483 2547 2599 2626 2677 2721 2707 2728 2832 2873 2859 2892 2975 2909 2854 2819 2775 2749 2724 2691 2674 2668 2681 2730 2703 2685 2686 2690 2662 2631 2644 2649 2643 2611 2632 2608 2606 2604 2601 2592 2589 2577 2577 2570 2550 2568 2562 2558 2558 2561 2542 2560 2562 2566 2572 2569 2567 2570 2568 2562 2550 2542 -9999 -9999 -9999 -9999 -9999 -9999 -9999 -9999 -9999 -9999 -9999 -9999 -9999 -9999 -9999 -9999 -9999 -9999 -9999 -9999 -9999 -9999 -9999 -9999 -9999 -9999 -9999 -9999 -9999 -9999 -9999 -9999 -9999
-9999 -9999 -9999 3568 3424 3286 3191 3317 3294 3116 3042 3008 2993 3008 3007 2998 2896 2813 2734 2699 2678 2631 2665 2628 2650 2617 2542 2533 2532 2506 2639 2616 2522 2491 2474 2478 2473 2501 2582 2454 2391 2337 2319 2296 2290 2295 2310 2344 2307 2271 2318 2260 2261 2276 2275 2323 2293 2469 2580 2547 2423 2326 2311 2311 2411 2483 2560 2489 2484 2519 2359 2307 2308 2316 2302 2267 2248 2245 2240 2239 2238 2236 2234 2233 2232 2236 2236 2236 2236 2236 2235 2238 2238 2239 2239 2243 2243 2246 2248 2252 2252 2255 2255 2257 2259 2263 2265 2267 2268 2280 2292 2293 2300 2321 2316 2330 2364 2380 2405 2432 2508 2549 2599 2629 2652 2660 2691 2727 2791 2813 2836 2860 2899 2866 2828 2822 2766 2731 2711 2706 2699 2716 2727 2745 2713 2763 2745 2747 2725 2671 2673 2660 2641 2649 2642 2636 2634 2627 2621 2611 2606 2591 2580 2566 2566 2581 2579 2574 2567 2569 2547 2580 2589 2590 2592 2595 2606 2616 2621 2610 2592 -9999 -9999 -9999 -9999 -9999 -9999 -9999 -9999 -9999 -9999 -9999 -9999 -9999 -9999 -9999 -9999 -9999 -9999 -9999 -9999 -9999 -9999 -9999 -9999 -9999 -9999 -9999 -9999 -9999 -9999 -9999 -9999 -9999 -9999
-9999 3561 3630 3549 3398 3265 3251 3378 3320 3169 3075 3070 3058 3067 3050 2996 2832 2793 2702 2743 2678 2647 2653 2635 2617 2586 2584 2568 2519 2573 2686 2661 2521 2514 2527 2509 2535 2551 2590 2453 2379 2324 2314 2324 2302 2282 2296 2428 2374 2264 2294 2263 2260 2257 2257 2265 2270 2369 2482 2378 2318 2316 2296 2303 2421 2541 2560 2491 2372 2396 2363 2297 2282 2306 2263 2253 2244 2241 2238 2237 2237 2236 2235 2234 2235 2236 2235 2235 2236 2236 2236 2237 2241 2239 2240 2243 2243 2246 2248 2250 2251 2254 2255 2257 2258 2263 2262 2264 2266 2278 2287 2300 2310 2314 2321 2330 2366 2385 2419 2428 2507 2554 2581 2670 2695 2683 2689 2709 2762 2831 2871 2897 2929 2914 2858 2837 2770 2732 2767 2725 2751 2758 2775 2734 2751 2780 2745 2740 2711 2688 2682 2656 2673 2661 2651 2652 2650 2641 2638 2624 2618 2582 2566 2556 2587 2584 2589 2586 2577 2577 2544 2595 2620 2614 2605 2611 2638 2653 2656 2644 -9999 -9999 -9999 -9999 -9999 -9999 -9999 -9999 -9999 -9999 -9999 -9999 -9999 -9999 -9999 -9999 -9999 -9999 -9999 -9999 -9999 -9999 -9999 -9999 -9999 -9999 -9999 -9999 -9999 -9999 -9999 -9999 -9999 -9999 -9999
-9999 3544 3506 3449 3423 3434 3383 3478 3424 3172 3070 3136 3157 3150 3003 3047 2918 2810 2757 2707 2732 2726 2704 2697 2613 2595 2578 2562 2638 2645 2646 2615 2579 2569 2548 2521 2469 2473 2515 2432 2384 2396 2402 2450 2384 2292 2277 2327 2304 2262 2261 2260 2259 2255 2255 2253 2255 2285 2323 2274 2268 2275 2283 2328 2475 2486 2569 2569 2445 2429 2373 2341 2269 2264 2387 2355 2242 2240 2238 2236 2235 2235 2235 2234 2235 2235 2235 2234 2235 2237 2235 2239 2239 2241 2241 2241 2244 2246 2249 2250 2252 2253 2254 2257 2258 2261 2264 2265 2267 2270 2277 2292 2306 2320 2333 2342 2416 2440 2459 2482 2533 2567 2606 2597 2639 2649 2674 2687 2758 2782 2950 2971 3121 3026 2871 2833 2790 2825 2821 2833 2799 2840 2812 2824 2808 2792 2796 2734 2711 2681 2675 2707 2708 2689 2685 2687 2692 2672 2662 2636 2612 2613 2582 2619 2612 2586 2617 2616 2604 2595 2592 2656 2735 2707 2681 2646 2717 2780 -9999 -9999 -9999 -9999 -9999 -9999 -9999 -9999 -9999 -9999 -9999 -9999 -9999 -9999 -9999 -9999 -9999 -9999 -9999 -9999 -9999 -9999 -9999 -9999 -9999 -9999 -9999 -9999 -9999 -9999 -9999 -9999 -9999 -9999 -9999 -9999 -9999
-9999 -9999 3597 3497 3480 3546 3445 3492 3421 3174 3115 3180 3230 3131 3115 3099 2896 2848 2765 2736 2776 2719 2733 2686 2649 2623 2592 2553 2657 2669 2661 2635 2600 2583 2540 2507 2439 2452 2494 2424 2451 2454 2433 2425 2402 2297 2276 2320 2309 2266 2262 2259 2257 2255 2254 2252 2252 2302 2352 2261 2263 2271 2295 2349 2446 2392 2507 2657 2418 2347 2380 2379 2262 2259 2286 2256 2242 2240 2236 2236 2235 2235 2237 2233 2233 2234 2235 2234 2235 2235 2235 2239 2238 2242 2240 2239 2241 2243 2246 2249 2250 2252 2253 2257 2258 2260 2262 2266 2269 2274 2278 2290 2299 2307 2336 2364 2424 2465 2451 2477 2533 2572 2625 2633 2606 2618 2677 2689 2741 2780 2875 2930 3069 3009 2873 2826 2826 2881 2842 2856 2818 2849 2838 2819 2814 2813 2777 2724 2728 2700 2682 2730 2716 2716 2706 2707 2704 2683 2671 2622 2602 2617 2585 2630 2616 2582 2628 2629 2615 2604 2606 2667 2797 2839 2753 2672 2770 2865 -9999 -9999 -9999 -9999 -9999 -9999 -9999 -9999 -9999 -9999 -9999 -9999 -9999 -9999 -9999 -9999 -9999 -9999 -9999 -9999 -9999 -9999 -9999 -9999 -9999 -9999 -9999 -9999 -9999 -9999 -9999 -9999 -9999 -9999 -9999 -9999 -9999
-9999 -9999 -9999 -9999 -9999 3463 3452 3450 3441 3249 3261 3252 3182 3096 3064 3004 2927 2911 2861 2810 2771 2756 2730 2703 2668 2650 2591 2650 2733 2771 2775 2767 2656 2607 2476 2458 2407 2388 2382 2376 2372 2395 2452 2316 2363 2296 2274 2270 2268 2265 2263 2262 2263 2257 2256 2255 2253 2296 2286 2252 2257 2308 2404 2630 2376 2308 2350 2374 2367 2304 2255 2248 2248 2247 2244 2242 2239 2240 2236 2236 2235 2236 2234 2233 2231 2233 2234 2234 2234 2236 2238 2237 2239 2238 2238 2240 2241 2241 2244 2248 2250 2252 2253 2255 2256 2260 2262 2268 2269 2273 2277 2291 2355 2446 2489 2458 2451 2494 2496 2524 2558 2575 2660 2755 2698 2673 2657 2701 2767 2751 2833 2907 2955 2925 2875 2899 2890 2911 2937 2874 2918 2896 2879 2869 2861 2798 2777 2780 2750 2728 2736 2772 2769 2761 2747 2736 2718 2671 2651 2651 2650 2622 2644 2643 2608 2627 2630 2626 2608 2598 2582 2663 2722 2744 2719 2694 2766 2899 -9999 -9999 -9999 -9999 -9999 -9999 -9999 -9999 -9999 -9999 -9999 -9999 -9999 -9999 -9999 -9999 -9999 -9999 -9999 -9999 -9999 -9999 -9999 -9999 -9999 -9999 -9999 -9999 -9999 -9999 -9999 -9999 -9999 -9999 -9999 -9999 -9999
-9999 -9999 -9999 -9999 -9999 3406 3407 3378 3362 3327 3318 3204 3155 3157 3104 3009 3025 3002 2916 2886 2787 2766 2720 2711 2664 2633 2615 2651 2726 2781 2841 2840 2691 2580 2486 2460 2444 2429 2422 2385 2360 2354 2387 2337 2295 2282 2279 2272 2270 2264 2264 2280 2276 2253 2253 2254 2253 2252 2252 2252 2252 2276 2378 2615 2351 2292 2313 2303 2366 2337 2249 2246 2243 2242 2242 2240 2239 2237 2236 2235 2235 2234 2233 2230 2231 2232 2234 2234 2234 2236 2237 2238 2238 2238 2237 2240 2240 2243 2244 2247 2249 2251 2253 2255 2256 2261 2264 2269 2270 2275 2279 2296 2322 2386 2556 2554 2472 2488 2524 2515 2564 2584 2634 2673 2679 2688 2706 2681 2770 2791 2850 2920 2906 2914 2909 2932 2921 2959 2988 2937 2918 2918 2903 2883 2858 2801 2816 2774 2777 2745 2798 2837 2848 2781 2752 2737 2713 2655 2666 2661 2630 2658 2660 2644 2626 2640 2636 2634 2623 2611 2576 2628 2683 2713 2688 2697 2797 2883 -9999 -9999 -9999 -9999 -9999 -9999 -9999 -9999 -9999 -9999 -9999 -9999 -9999 -9999 -9999 -9999 -9999 -9999 -9999 -9999 -9999 -9999 -9999 -9999 -9999 -9999 -9999 -9999 -9999 -9999 -9999 -9999 -9999 -9999 -9999 -9999 -9999
-9999 -9999 -9999 -9999 -9999 3534 3500 3383 3340 3455 3451 3316 3292 3223 3124 3049 2963 2920 2865 2820 2758 2741 2727 2721 2678 2664 2668 2671 2650 2657 2731 2685 2596 2516 2484 2455 2485 2492 2443 2423 2416 2388 2334 2316 2306 2322 2314 2291 2297 2297 2287 2259 2254 2251 2248 2249 2249 2247 2246 2247 2247 2259 2308 2337 2268 2262 2259 2254 2264 2264 2242 2240 2240 2240 2239 2239 2237 2236 2236 2236 2236 2235 2234 2229 2230 2232 2234 2234 2234 2236 2237 2238 2238 2237 2238 2238 2238 2241 2243 2247 2247 2249 2251 2255 2256 2260 2263 2272 2277 2284 2293 2314 2376 2364 2387 2452 2510 2495 2534 2558 2613 2627 2623 2633 2680 2709 2732 2747 2753 2816 2854 2844 2864 2928 2979 2989 2971 3020 3028 2978 3001 2966 2927 2893 2901 2831 2819 2804 2789 2782 2863 3019 2990 2820 2791 2731 2698 2719 2697 2689 2695 2674 2659 2653 2639 2649 2647 2635 2612 2609 2620 2651 2652 2655 2652 2698 2746 2753 2878 -9999 -9999 -9999 -9999 -9999 -9999 -9999 -9999 -9999 -9999 -9999 -9999 -9999 -9999 -9999 -9999 -9999 -9999 -9999 -9999 -9999 -9999 -9999 -9999 -9999 -9999 -9999 -9999 -9999 -9999 -9999 -9999 -9999 -9999 -9999 -9999
-9999 -9999 -9999 -9999 -9999 -9999 3501 3394 3411 3413 -9999 3400 3353 3256 3095 3114 2976 2949 2863 2837 2801 2794 2769 2735 2713 2722 2731 2747 2677 2630 2620 2581 2523 2472 2474 2492 2489 2438 2413 2459 2423 2383 2332 2340 2334 2325 2309 2298 2305 2289 2272 2258 2256 2250 2249 2248 2247 2247 2245 2244 2244 2252 2248 2249 2253 2261 2262 2251 2248 2257 2239 2241 2238 2238 2238 2238 2237 2236 2236 2236 2235 2235 2231 2234 2234 2233 2234 2235 2235 2236 2237 2238 2237 2238 2238 2239 2239 2241 2242 2245 2247 2251 2251 2255 2256 2261 2264 2272 2278 2288 2303 2338 2339 2347 2377 2406 2491 2537 2528 2563 2581 2607 2637 2653 2700 2792 2882 2851 2833 2851 2936 2939 2934 2897 3001 3029 3032 3042 3079 3028 3031 2983 2948 2923 2880 2864 2856 2816 2791 2809 2868 3007 2968 2841 2806 2720 2715 2714 2674 2711 2700 2680 2675 2666 2658 2660 2639 2629 2614 2596 2601 2627 2635 2626 2648 2676 2710 2721 2818 2884 -9999 -9999 -9999 -9999 -9999 -9999 -9999 -9999 -9999 -9999 -9999 -9999 -9999 -9999 -9999 -9999 -9999 -9999 -9999 -9999 -9999 -9999 -9999 -9999 -9999 -9999 -9999 -9999 -9999 -9999 -9999 -9999 -9999 -9999 -9999
-9999 -9999 -9999 -9999 -9999 -9999 -9999 -9999 -9999 -9999 -9999 3402 3425 3425 3360 3263 3106 3038 2968 3020 2954 2884 2944 2825 2992 2918 2851 2808 2725 2654 2583 2539 2555 2564 2552 2512 2452 2506 2500 2437 2465 2387 2370 2377 2359 2314 2312 2286 2270 2261 2258 2254 2251 2250 2250 2249 2248 2246 2245 2245 2245 2246 2244 2242 2261 2348 2423 2292 2240 2239 2236 2237 2238 2236 2237 2238 2237 2235 2235 2234 2235 2235 2237 2238 2233 2233 2233 2236 2235 2237 2237 2237 2237 2237 2237 2237 2237 2238 2239 2242 2245 2249 2249 2256 2257 2263 2268 2280 2286 2311 2318 2342 2359 2370 2400 2416 2626 2622 2551 2576 2599 2616 2646 2651 2837 2942 3017 2983 2921 2973 3032 3014 2997 3042 3012 3012 3104 3133 3181 3113 3058 3073 3005 2974 2955 2913 2905 2904 2891 2885 2870 2836 2822 2782 2775 2785 2750 2697 2721 2737 2723 2706 2698 2692 2661 2639 2623 2602 2592 2636 2591 2578 2624 2631 2620 2627 2671 2678 2712 -9999 -9999 -9999 -9999 -9999 -9999 -9999 -9999 -9999 -9999 -9999 -9999 -9999 -9999 -9999 -9999 -9999 -9999 -9999 -9999 -9999 -9999 -9999 -9999 -9999 -9999 -9999 -9999 -9999 -9999 -9999 -9999 -9999 -9999 -9999 -9999
-9999 -9999 -9999 -9999 -9999 -9999 -9999 -9999 -9999 -9999 -9999 3472 3497 3437 3425 3286 3141 3018 3022 3126 3067 2973 3073 2894 3113 3075 2938 2798 2638 2609 2549 2591 2591 2564 2556 2523 2497 2500 2438 2420 2425 2356 2365 2362 2345 2328 2311 2281 2265 2259 2258 2253 2250 2249 2250 2248 2247 2247 2246 2245 2245 2250 2244 2243 2247 2296 2312 2290 2244 2238 2236 2237 2237 2237 2238 2238 2236 2234 2235 2234 2234 2236 2236 2231 2234 2235 2235 2235 2236 2237 2238 2237 2237 2237 2237 2237 2238 2239 2241 2242 2245 2248 2249 2254 2256 2262 2278 2292 2296 2324 2332 2331 2367 2380 2401 2426 2578 2543 2563 2562 2601 2623 2643 2662 2849 2948 3024 3040 2971 3046 3072 3065 3034 3042 3124 3081 3130 3175 3239 3156 3100 3082 3018 3037 3000 2919 2920 2961 2925 2895 2871 2826 2804 2825 2814 2760 2732 2727 2764 2743 2729 2714 2705 2690 2648 2647 2659 2686 2645 2677 2633 2611 2686 2706 2657 2655 2650 2661 -9999 -9999 -9999 -9999 -9999 -9999 -9999 -9999 -9999 -9999 -9999 -9999 -9999 -9999 -9999 -9999 -9999 -9999 -9999 -9999 -9999 -9999 -9999 -9999 -9999 -9999 -9999 -9999 -9999 -9999 -9999 -9999 -9999 -9999 -9999 -9999 -9999
-9999 -9999 -9999 -9999 -9999 -9999 -9999 -9999 -9999 -9999 -9999 -9999 -9999 -9999 3382 3254 3154 3091 3180 3197 3036 2938 2907 2838 2842 2771 2722 2679 2636 2591 2626 2596 2575 2531 2484 2476 2411 2371 2357 2327 2329 2323 2295 2299 2304 2281 2271 2265 2260 2259 2259 2254 2252 2249 2250 2246 2245 2244 2245 2243 2244 2241 2243 2242 2239 2238 2280 2418 2247 2238 2236 2236 2238 2238 2236 2236 2234 2234 2233 2233 2233 2235 2234 2234 2235 2236 2235 2236 2236 2236 2237 2236 2236 2236 2236 2235 2236 2237 2240 2240 2243 2248 2250 2253 2255 2276 2290 2318 2328 2342 2363 2376 2364 2395 2487 2511 2481 2513 2573 2580 2616 2645 2686 2742 2870 2968 3178 3199 3145 3113 3076 3116 3123 3139 3191 3218 3146 3193 3276 3245 3199 3077 3126 3065 3048 3071 3029 2985 2952 2925 2897 2834 2808 2813 2815 2784 2783 2773 2752 2730 2712 2692 2683 2677 2658 2652 2726 2764 2741 2717 2712 2673 2674 2719 2718 2703 -9999 -9999 -9999 -9999 -9999 -9999 -9999 -9999 -9999 -9999 -9999 -9999 -9999 -9999 -9999 -9999 -9999 -9999 -9999 -9999 -9999 -9999 -9999 -9999 -9999 -9999 -9999 -9999 -9999 -9999 -9999 -9999 -9999 -9999 -9999 -9999 -9999 -9999 -9999
-9999 -9999 -9999 -9999 -9999 -9999 -9999 -9999 -9999 -9999 -9999 -9999 -9999 -9999 3370 3265 3289 3259 3255 3219 2961 2884 2820 2800 2740 2707 2661 2643 2610 2636 2635 2597 2534 2537 2513 2455 2392 2376 2406 2328 2381 2331 2299 2283 2285 2274 2269 2262 2262 2260 2257 2254 2253 2250 2248 2245 2245 2245 2243 2243 2242 2241 2241 2242 2241 2241 2284 2314 2242 2238 2236 2237 2238 2238 2238 2235 2233 2234 2233 2233 2233 2235 2234 2236 2236 2236 2235 2235 2236 2236 2236 2235 2236 2236 2236 2235 2236 2238 2238 2241 2243 2250 2253 2255 2257 2279 2292 2323 2337 2347 2363 2401 2410 2397 2537 2551 2497 2551 2590 2599 2639 2657 2718 2830 2908 3040 3196 3212 3190 3232 3111 3134 3181 3202 3286 3303 3175 3240 3304 3350 3249 3137 3151 3122 3076 3095 3066 2997 2950 2915 2896 2867 2837 2839 2849 2816 2807 2767 2748 2719 2719 2740 2685 2669 2663 2674 2740 2781 2752 2727 2730 2696 2702 2763 2757 -9999 -9999 -9999 -9999 -9999 -9999 -9999 -9999 -9999 -9999 -9999 -9999 -9999 -9999 -9999 -9999 -9999 -9999 -9999 -9999 -9999 -9999 -9999 -9999 -9999 -9999 -9999 -9999 -9999 -9999 -9999 -9999 -9999 -9999 -9999 -9999 -9999 -9999 -9999 -9999
-9999 -9999 -9999 -9999 -9999 -9999 -9999 -9999 -9999 -9999 -9999 -9999 -9999 -9999 -9999 3429 3372 3404 3368 3274 3033 2933 2816 2769 2807 2826 2726 2707 2657 2662 2595 2570 2576 2569 2478 2443 2421 2415 2352 2407 2421 2346 2306 2281 2278 2273 2268 2263 2262 2261 2257 2255 2254 2251 2250 2247 2246 2244 2243 2242 2241 2239 2240 2240 2240 2244 2248 2241 2240 2237 2237 2237 2237 2238 2237 2236 2234 2234 2233 2234 2234 2233 2235 2234 2233 2235 2235 2235 2235 2236 2236 2234 2236 2236 2236 2236 2237 2238 2239 2242 2244 2249 2252 2259 2260 2284 2298 2323 2340 2363 2370 2395 2416 2435 2494 2529 2514 2548 2610 2630 2646 2683 2750 2851 2992 3058 3139 3206 3253 3273 3123 3149 3224 3235 3364 3390 3296 3349 3400 3354 3241 3183 3133 3105 3132 3113 3081 2985 2975 2922 2918 2890 2871 2855 2843 2811 2797 2766 2747 2724 2725 2723 2690 2675 2693 2673 2725 2758 2742 2747 2722 2683 2694 2735 -9999 -9999 -9999 -9999 -9999 -9999 -9999 -9999 -9999 -9999 -9999 -9999 -9999 -9999 -9999 -9999 -9999 -9999 -9999 -9999 -9999 -9999 -9999 -9999 -9999 -9999 -9999 -9999 -9999 -9999 -9999 -9999 -9999 -9999 -9999 -9999 -9999 -9999 -9999 -9999 -9999
-9999 -9999 -9999 -9999 -9999 -9999 -9999 -9999 -9999 -9999 -9999 -9999 -9999 -9999 -9999 3529 3429 3383 3269 3214 3074 3024 3006 2859 3052 3112 2903 2863 2698 2655 2596 2645 2614 2530 2463 2448 2421 2386 2406 2490 2518 2392 2336 2294 2293 2292 2278 2267 2265 2262 2260 2256 2255 2251 2251 2244 2242 2242 2243 2242 2242 2240 2240 2239 2241 2240 2238 2239 2238 2238 2237 2238 2238 2238 2236 2235 2234 2233 2233 2236 2237 2237 2235 2235 2235 2234 2234 2235 2235 2236 2237 2234 2236 2236 2236 2237 2236 2239 2240 2245 2245 2250 2254 2261 2268 2287 2298 2322 2341 2373 2387 2422 2436 2454 2453 2472 2501 2541 2577 2603 2680 2721 2908 2918 3020 3044 3106 3169 3360 3354 3227 3236 3313 3271 3392 3471 3385 3464 3536 3486 3394 3314 3220 3171 3133 3083 3058 2985 2957 2914 2896 2868 2846 2815 2809 2788 2771 2753 2738 2754 2711 2686 2679 2700 2757 2751 2718 -9999 -9999 -9999 2756 2766 2724 2746 -9999 -9999 -9999 -9999 -9999 -9999 -9999 -9999 -9999 -9999 -9999 -9999 -9999 -9999 -9999 -9999 -9999 -9999 -9999 -9999 -9999 -9999 -9999 -9999 -9999 -9999 -9999 -9999 -9999 -9999 -9999 -9999 -9999 -9999 -9999 -9999 -9999 -9999 -9999 -9999 -9999
-9999 -9999 -9999 -9999 -9999 -9999 -9999 -9999 -9999 -9999 -9999 -9999 -9999 -9999 -9999 -9999 3407 3355 3287 3276 3108 3165 3064 2897 3115 3138 3041 2997 2731 2654 2713 2714 2591 2546 2519 2468 2423 2404 2423 2454 2434 2377 2328 2322 2333 2307 2293 2268 2266 2263 2260 2256 2254 2250 2249 2244 2242 2242 2242 2242 2242 2241 2240 2240 2239 2239 2238 2238 2240 2237 2237 2237 2239 2237 2235 2234 2234 2235 2234 2237 2234 2236 2234 2235 2234 2234 2234 2235 2235 2236 2233 2233 2234 2236 2236 2237 2236 2237 2237 2243 2243 2249 2253 2261 2268 2286 2296 2326 2333 2361 2378 2427 2450 2469 2492 2501 2514 2527 2597 2626 2720 2738 2966 3014 3026 3087 3163 3213 3346 3378 3348 3319 3362 3311 3413 3456 3473 3508 3562 3542 3400 3336 3234 3176 3134 3212 3202 3102 -9999 2923 2899 2878 2866 2850 2813 2772 2763 2748 2742 2809 2771 2706 2697 2723 2776 2764 -9999 -9999 -9999 -9999 2848 2859 -9999 -9999 -9999 -9999 -9999 -9999 -9999 -9999 -9999 -9999 -9999 -9999 -9999 -9999 -9999 -9999 -9999 -9999 -9999 -9999 -9999 -9999 -9999 -9999 -9999 -9999 -9999 -9999 -9999 -9999 -9999 -9999 -9999 -9999 -9999 -9999 -9999 -9999 -9999 -9999 -9999 -9999 -9999
-9999 -9999 -9999 -9999 -9999 -9999 -9999 -9999 -9999 -9999 -9999 -9999 -9999 -9999 -9999 -9999 3421 3404 3227 3190 3200 3216 3108 2978 3212 3169 3079 3025 2863 2809 2799 2721 2609 2565 2540 2507 2464 2453 2429 2395 2408 2352 2341 2341 2310 2281 2278 2280 2275 2265 2262 2256 2254 2250 2249 2246 2244 2242 2242 2241 2241 2239 2238 2238 2240 2240 2238 2238 2236 2236 2236 2238 2237 2236 2236 2235 2234 2235 2235 2234 2232 2232 2234 2235 2235 2235 2233 2233 2233 2233 2233 2233 2233 2238 2236 2235 2236 2233 2236 2239 2242 2249 2250 2264 2276 2301 2306 2333 2349 2374 2392 2442 2466 2484 2520 2545 2585 2600 2621 2653 2755 2827 2888 2952 3067 3122 3168 3236 3466 3562 3593 3585 3516 3420 3453 3503 3571 3601 3558 3448 3393 3341 3291 3259 3273 -9999 -9999 -9999 -9999 -9999 -9999 2869 2846 2821 2810 2812 2809 2808 2832 2948 2886 2827 2773 -9999 -9999 -9999 -9999 -9999 -9999 -9999 -9999 -9999 -9999 -9999 -9999 -9999 -9999 -9999 -9999 -9999 -9999 -9999 -9999 -9999 -9999 -9999 -9999 -9999 -9999 -9999 -9999 -9999 -9999 -9999 -9999 -9999 -9999 -9999 -9999 -9999 -9999 -9999 -9999 -9999 -9999 -9999 -9999 -9999 -9999 -9999 -9999 -9999 -9999 -9999 -9999
-9999 -9999 -9999 -9999 -9999 -9999 -9999 -9999 -9999 -9999 -9999 -9999 -9999 -9999 -9999 -9999 3436 3457 3299 3216 3292 3279 3090 3019 3223 3188 3080 3011 2879 2853 2811 2675 2570 2562 2526 2510 2492 2477 2455 2464 2434 2362 2320 2321 2298 2286 2281 2288 2281 2267 2262 2256 2255 2253 2250 2246 2245 2243 2242 2242 2240 2239 2239 2238 2239 2238 2238 2237 2236 2236 2238 2239 2243 2239 2235 2235 2235 2234 2234 2237 2233 2235 2235 2234 2235 2235 2233 2233 2233 2233 2233 2233 2233 2236 2237 2236 2237 2236 2237 2241 2243 2249 2251 2270 2279 2305 2319 2335 2358 2383 2405 2446 2476 2500 2535 2562 2605 2626 2660 2689 2790 2892 2957 2932 3035 3132 3256 3269 3526 3607 3656 3666 3540 3462 3423 3504 3595 3630 3553 3454 3412 3395 3386 3327 3295 -9999 -9999 -9999 -9999 -9999 -9999 -9999 -9999 2830 2828 2808 2802 2864 2864 2926 2890 -9999 -9999 -9999 -9999 -9999 -9999 -9999 -9999 -9999 -9999 -9999 -9999 -9999 -9999 -9999 -9999 -9999 -9999 -9999 -9999 -9999 -9999 -9999 -9999 -9999 -9999 -9999 -9999 -9999 -9999 -9999 -9999 -9999 -9999 -9999 -9999 -9999 -9999 -9999 -9999 -9999 -9999 -9999 -9999 -9999 -9999 -9999 -9999 -9999 -9999 -9999 -9999 -9999 -9999
-9999 -9999 -9999 -9999 -9999 -9999 -9999 -9999 -9999 -9999 -9999 -9999 -9999 -9999 -9999 -9999 -9999 3454 3407 3285 3436 3353 3137 3088 3278 3289 3104 3012 2965 2879 2706 2662 2565 2541 2489 2474 2448 2434 2434 2374 2365 2357 2332 2308 2299 2297 2295 2307 2297 2282 2271 2260 2258 2252 2250 2248 2247 2245 2242 2239 2242 2240 2239 2238 2237 2237 2237 2237 2236 2235 2236 2238 2240 2236 2235 2234 2234 2234 2234 2234 2233 2235 2240 2236 2235 2237 2235 2233 2233 2235 2235 2238 2237 2238 2235 2236 2236 2236 2239 2247 2249 2253 2255 2277 2291 2315 2328 2348 2359 2378 2412 2453 2480 2508 2562 2596 2636 2664 2734 2778 2801 2831 3014 3111 3150 3180 3337 3442 3471 3534 3673 3738 3552 3630 3580 3471 3670 3630 3619 3555 3487 -9999 -9999 -9999 -9999 -9999 -9999 -9999 -9999 -9999 -9999 -9999 -9999 -9999 -9999 3007 2967 2927 -9999 -9999 -9999 -9999 -9999 -9999 -9999 -9999 -9999 -9999 -9999 -9999 -9999 -9999 -9999 -9999 -9999 -9999 -9999 -9999 -9999 -9999 -9999 -9999 -9999 -9999 -9999 -9999 -9999 -9999 -9999 -9999 -9999 -9999 -9999 -9999 -9999 -9999 -9999 -9999 -9999 -9999 -9999 -9999 -9999 -9999 -9999 -9999 -9999 -9999 -9999 -9999 -9999 -9999 -9999 -9999 -9999
-9999 -9999 -9999 -9999 -9999 -9999 -9999 -9999 -9999 -9999 -9999 -9999 -9999 -9999 -9999 -9999 -9999 -9999 3449 3336 3434 3419 3161 3118 3299 3239 3092 3037 2954 2906 2698 2634 2592 2546 2512 2487 2443 2437 2395 2409 2379 2346 2363 2346 2319 2300 2320 2316 2303 2284 2272 2262 2258 2254 2251 2248 2248 2243 2242 2239 2240 2240 2243 2239 2237 2237 2236 2237 2236 2236 2236 2237 2236 2236 2235 2235 2234 2234 2231 2232 2237 2236 2233 2233 2234 2233 2235 2233 2236 2237 2237 2238 2237 2237 2236 2237 2236 2239 2242 2248 2252 2257 2260 2283 2296 2317 2323 2350 2367 2397 2406 2456 2477 2506 2561 2581 2640 2676 2743 2812 2912 2884 2936 3074 3238 3276 3395 3466 3565 3596 3669 3757 3580 3696 3597 3501 3712 3723 3691 3627 -9999 -9999 -9999 -9999 -9999 -9999 -9999 -9999 -9999 -9999 -9999 -9999 -9999 -9999 -9999 -9999 -9999 -9999 -9999 -9999 -9999 -9999 -9999 -9999 -9999 -9999 -9999 -9999 -9999 -9999 -9999 -9999 -9999 -9999 -9999 -9999 -9999 -9999 -9999 -9999 -9999 -9999 -9999 -9999 -9999 -9999 -9999 -9999 -9999 -9999 -9999 -9999 -9999 -9999 -9999 -9999 -9999 -9999 -9999 -9999 -9999 -9999 -9999 -9999 -9999 -9999 -9999 -9999 -9999 -9999 -9999 -9999 -9999 -9999 -9999
-9999 -9999 -9999 -9999 -9999 -9999 -9999 -9999 -9999 -9999 -9999 -9999 -9999 -9999 -9999 -9999 -9999 -9999 -9999 3371 3439 3361 3193 3244 3379 3269 3086 3010 2885 2836 2777 2767 2710 2674 2603 2488 2440 2428 2388 2377 2392 2361 2339 2318 2308 2334 2321 2311 2307 2288 2281 2266 2263 2259 2254 2248 2245 2245 2243 2238 2239 2237 2238 2238 2237 2236 2237 2236 2236 2235 2236 2244 2233 2235 2230 2232 2233 2233 2231 2231 2230 2232 2228 2232 2233 2235 2234 2235 2237 2238 2237 2238 2238 2238 2236 2236 2237 2242 2245 2254 2255 2263 2267 2277 2282 2299 2316 2353 2373 2425 2440 2461 2481 2515 2582 2606 2697 2723 2831 2898 2959 2960 3041 3096 3284 3374 3509 3562 3622 3669 3786 3788 3650 3691 3636 3663 3739 -9999 -9999 -9999 -9999 -9999 -9999 -9999 -9999 -9999 -9999 -9999 -9999 -9999 -9999 -9999 -9999 -9999 -9999 -9999 -9999 -9999 -9999 -9999 -9999 -9999 -9999 -9999 -9999 -9999 -9999 -9999 -9999 -9999 -9999 -9999 -9999 -9999 -9999 -9999 -9999 -9999 -9999 -9999 -9999 -9999 -9999 -9999 -9999 -9999 -9999 -9999 -9999 -9999 -9999 -9999 -9999 -9999 -9999 -9999 -9999 -9999 -9999 -9999 -9999 -9999 -9999 -9999 -9999 -9999 -9999 -9999 -9999 -9999 -9999 -9999 -9999 -9999 -9999
-9999 -9999 -9999 -9999 -9999 -9999 -9999 -9999 -9999 -9999 -9999 -9999 -9999 -9999 -9999 -9999 -9999 -9999 -9999 -9999 -9999 3312 3226 3299 3312 3250 3125 3106 2869 2835 2742 2700 2701 2655 2559 2508 2440 2400 2411 2398 2415 2376 2359 2322 2337 2351 2338 2322 2297 2299 2291 2268 2263 2259 2258 2249 2247 2245 2243 2240 2240 2238 2241 2240 2236 2236 2237 2235 2236 2235 2247 2244 2234 2238 2230 2231 2233 2232 2233 2233 2232 2231 2230 2230 2233 2234 2235 2235 2236 2238 2239 2238 2238 2238 2238 2237 2237 2240 2244 2252 2253 2260 2264 2275 2280 2295 2312 2359 2382 2457 2481 2485 2497 2503 2558 2633 2704 2752 2910 2980 3059 3016 3047 3079 3325 3407 3550 3624 3692 3743 3792 3826 3694 3727 3699 3739 -9999 -9999 -9999 -9999 -9999 -9999 -9999 -9999 -9999 -9999 -9999 -9999 -9999 -9999 -9999 -9999 -9999 -9999 -9999 -9999 -9999 -9999 -9999 -9999 -9999 -9999 -9999 -9999 -9999 -9999 -9999 -9999 -9999 -9999 -9999 -9999 -9999 -9999 -9999 -9999 -9999 -9999 -9999 -9999 -9999 -9999 -9999 -9999 -9999 -9999 -9999 -9999 -9999 -9999 -9999 -9999 -9999 -9999 -9999 -9999 -9999 -9999 -9999 -9999 -9999 -9999 -9999 -9999 -9999 -9999 -9999 -9999 -9999 -9999 -9999 -9999 -9999 -9999 -9999
-9999 -9999 -9999 -9999 -9999 -9999 -9999 -9999 -9999 -9999 -9999 -9999 -9999 -9999 -9999 -9999 -9999 -9999 -9999 -9999 -9999 -9999 3316 3379 3234 3101 2993 2953 2875 2830 2766 2674 2578 2568 2493 2471 2463 2485 2496 2430 2398 2383 2365 2410 2411 2375 2349 2319 2322 2295 2290 2278 2267 2261 2262 2250 2247 2246 2246 2240 2240 2242 2247 2242 2237 2238 2237 2236 2236 2235 2234 2233 2230 2233 2234 2234 2233 2233 2233 2233 2236 2230 2231 2234 2230 2233 2235 2236 2237 2237 2238 2238 2238 2237 2238 2237 2238 2238 2241 2249 2252 2258 2265 2271 2282 2314 2358 2437 2451 2519 2546 2514 2526 2545 2576 2598 2758 2837 3026 3166 3337 3290 3384 3318 3330 3420 3643 3695 3794 3848 3887 3877 -9999 -9999 -9999 -9999 -9999 -9999 -9999 -9999 -9999 -9999 -9999 -9999 -9999 -9999 -9999 -9999 -9999 -9999 -9999 -9999 -9999 -9999 -9999 -9999 -9999 -9999 -9999 -9999 -9999 -9999 -9999 -9999 -9999 -9999 -9999 -9999 -9999 -9999 -9999 -9999 -9999 -9999 -9999 -9999 -9999 -9999 -9999 -9999 -9999 -9999 -9999 -9999 -9999 -9999 -9999 -9999 -9999 -9999 -9999 -9999 -9999 -9999 -9999 -9999 -9999 -9999 -9999 -9999 -9999 -9999 -9999 -9999 -9999 -9999 -9999 -9999 -9999 -9999 -9999 -9999 -9999 -9999 -9999
-9999 -9999 -9999 -9999 -9999 -9999 -9999 -9999 -9999 -9999 -9999 -9999 -9999 -9999 -9999 -9999 -9999 -9999 -9999 -9999 -9999 -9999 -9999 3295 3151 3120 3080 3022 2912 2872 2695 2644 2592 2545 2498 2503 2490 2473 2446 2397 2390 2369 2355 2426 2404 2344 2345 2336 2330 2309 2299 2279 2272 2267 2261 2254 2248 2249 2243 2240 2238 2239 2242 2240 2237 2237 2238 2236 2236 2234 2228 2228 2233 2233 2233 2233 2234 2234 2233 2232 2231 2234 2232 2232 2230 2229 2235 2236 2236 2238 2238 2237 2238 2238 2237 2238 2237 2238 2243 2248 2251 2259 2264 2272 2281 2309 2327 2405 2447 2511 2529 2566 2571 2572 2588 2668 2778 2809 2980 3135 3361 3458 3476 3450 3374 3477 3680 3737 3838 3893 3932 -9999 -9999 -9999 -9999 -9999 -9999 -9999 -9999 -9999 -9999 -9999 -9999 -9999 -9999 -9999 -9999 -9999 -9999 -9999 -9999 -9999 -9999 -9999 -9999 -9999 -9999 -9999 -9999 -9999 -9999 -9999 -9999 -9999 -9999 -9999 -9999 -9999 -9999 -9999 -9999 -9999 -9999 -9999 -9999 -9999 -9999 -9999 -9999 -9999 -9999 -9999 -9999 -9999 -9999 -9999 -9999 -9999 -9999 -9999 -9999 -9999 -9999 -9999 -9999 -9999 -9999 -9999 -9999 -9999 -9999 -9999 -9999 -9999 -9999 -9999 -9999 -9999 -9999 -9999 -9999 -9999 -9999 -9999 -9999
-9999 -9999 -9999 -9999 -9999 -9999 -9999 -9999 -9999 -9999 -9999 -9999 -9999 -9999 -9999 -9999 -9999 -9999 -9999 -9999 -9999 -9999 3166 3202 3022 2982 2909 2838 2764 2751 2669 2634 2601 2569 2506 2479 2477 2469 2457 2407 2421 2422 2406 2383 2364 2389 2374 2370 2349 2330 2314 2299 2291 2262 2262 2246 2247 2243 2242 2240 2239 2240 2239 2238 2236 2239 2239 2238 2236 2236 2234 2235 2234 2233 2233 2233 2234 2233 2234 2234 2234 2235 2235 2237 2236 2229 2235 2235 2236 2265 2302 2311 2288 2247 2240 2238 2238 2240 2243 2246 2249 2256 2259 2264 2278 2326 2349 2361 2363 2414 2434 2478 2528 2551 2631 2633 2732 2825 2915 2968 3125 3296 3384 3396 3502 3557 3699 3747 3885 3967 -9999 -9999 -9999 -9999 -9999 -9999 -9999 -9999 -9999 -9999 -9999 -9999 -9999 -9999 -9999 -9999 -9999 -9999 -9999 -9999 -9999 -9999 -9999 -9999 -9999 -9999 -9999 -9999 -9999 -9999 -9999 -9999 -9999 -9999 -9999 -9999 -9999 -9999 -9999 -9999 -9999 -9999 -9999 -9999 -9999 -9999 -9999 -9999 -9999 -9999 -9999 -9999 -9999 -9999 -9999 -9999 -9999 -9999 -9999 -9999 -9999 -9999 -9999 -9999 -9999 -9999 -9999 -9999 -9999 -9999 -9999 -9999 -9999 -9999 -9999 -9999 -9999 -9999 -9999 -9999 -9999 -9999 -9999 -9999 -9999
-9999 -9999 -9999 -9999 -9999 -9999 -9999 -9999 -9999 -9999 -9999 -9999 -9999 -9999 -9999 -9999 -9999 -9999 -9999 -9999 -9999 -9999 3158 3116 3064 2988 3060 2899 2914 2817 2663 2630 2591 2564 2493 2522 2513 2498 2449 2457 2445 2425 2436 2397 2418 2396 2372 2375 2356 2337 2313 2314 2302 2266 2255 2247 2245 2243 2241 2240 2239 2239 2239 2237 2238 2237 2238 2237 2236 2236 2235 2234 2233 2234 2233 2233 2233 2233 2234 2234 2235 2235 2236 2236 2235 2236 2236 2236 2237 2284 2340 2370 2334 2253 2245 2238 2238 2242 2244 2247 2249 2257 2257 2263 2284 2338 2362 2392 2404 2398 2434 2518 2531 2547 2608 2661 2686 2753 2923 2964 3087 3146 3305 3373 3502 3573 3711 3767 3895 3951 4078 -9999 -9999 -9999 -9999 -9999 -9999 -9999 -9999 -9999 -9999 -9999 -9999 -9999 -9999 -9999 -9999 -9999 -9999 -9999 -9999 -9999 -9999 -9999 -9999 -9999 -9999 -9999 -9999 -9999 -9999 -9999 -9999 -9999 -9999 -9999 -9999 -9999 -9999 -9999 -9999 -9999 -9999 -9999 -9999 -9999 -9999 -9999 -9999 -9999 -9999 -9999 -9999 -9999 -9999 -9999 -9999 -9999 -9999 -9999 -9999 -9999 -9999 -9999 -9999 -9999 -9999 -9999 -9999 -9999 -9999 -9999 -9999 -9999 -9999 -9999 -9999 -9999 -9999 -9999 -9999 -9999 -9999 -9999 -9999
-9999 -9999 -9999 -9999 -9999 -9999 -9999 -9999 -9999 -9999 -9999 -9999 -9999 -9999 -9999 -9999 -9999 -9999 -9999 -9999 -9999 3268 3204 3207 3151 3169 3038 3068 2997 2788 2651 2603 2567 2565 2518 2474 2480 2494 2480 2485 2458 2458 2447 2424 2431 2418 2392 2404 2391 2349 2339 2325 2301 2273 2258 2250 2247 2244 2241 2241 2239 2238 2239 2238 2237 2238 2237 2235 2239 2237 2236 2234 2234 2235 2234 2233 2234 2234 2234 2234 2235 2235 2236 2236 2237 2237 2237 2237 2240 2337 2398 2385 2333 2264 2253 2245 2245 2245 2247 2252 2253 2259 2263 2271 2282 2306 2320 2348 2374 2449 2479 2524 2557 2581 2639 2662 2720 2757 2830 2905 2947 2996 3182 3238 3398 3491 3622 3714 3814 3868 -9999 -9999 -9999 -9999 -9999 -9999 -9999 -9999 -9999 -9999 -9999 -9999 -9999 -9999 -9999 -9999 -9999 -9999 -9999 -9999 -9999 -9999 -9999 -9999 -9999 -9999 -9999 -9999 -9999 -9999 -9999 -9999 -9999 -9999 -9999 -9999 -9999 -9999 -9999 -9999 -9999 -9999 -9999 -9999 -9999 -9999 -9999 -9999 -9999 -9999 -9999 -9999 -9999 -9999 -9999 -9999 -9999 -9999 -9999 -9999 -9999 -9999 -9999 -9999 -9999 -9999 -9999 -9999 -9999 -9999 -9999 -9999 -9999 -9999 -9999 -9999 -9999 -9999 -9999 -9999 -9999 -9999 -9999 -9999 -9999
-9999 -9999 -9999 -9999 -9999 -9999 -9999 -9999 -9999 -9999 -9999 -9999 -9999 -9999 -9999 -9999 -9999 -9999 -9999 -9999 -9999 3202 3151 3142 3129 3177 3163 3178 2957 2793 2623 2594 2555 2535 2484 2527 2519 2511 2516 2486 2473 2469 2444 2466 2466 2410 2415 2401 2388 2366 2366 2331 2309 2273 2263 2252 2249 2245 2242 2240 2242 2238 2238 2239 2237 2237 2236 2236 2237 2237 2234 2235 2235 2236 2234 2234 2235 2234 2235 2236 2234 2233 2234 2235 2236 2236 2235 2235 2239 2317 2368 2435 2367 2285 2271 2247 2246 2246 2249 2253 2256 2261 2264 2274 2280 2298 2315 2363 2392 2426 2443 2482 2523 2558 2618 2632 2729 2782 2854 2898 3067 3019 3054 3103 3505 3516 3540 3627 3727 3762 -9999 -9999 -9999 -9999 -9999 -9999 -9999 -9999 -9999 -9999 -9999 -9999 -9999 -9999 -9999 -9999 -9999 -9999 -9999 -9999 -9999 -9999 -9999 -9999 -9999 -9999 -9999 -9999 -9999 -9999 -9999 -9999 -9999 -9999 -9999 -9999 -9999 -9999 -9999 -9999 -9999 -9999 -9999 -9999 -9999 -9999 -9999 -9999 -9999 -9999 -9999 -9999 -9999 -9999 -9999 -9999 -9999 -9999 -9999 -9999 -9999 -9999 -9999 -9999 -9999 -9999 -9999 -9999 -9999 -9999 -9999 -9999 -9999 -9999 -9999 -9999 -9999 -9999 -9999 -9999 -9999 -9999 -9999 -9999 -9999
-9999 -9999 -9999 -9999 -9999 -9999 -9999 -9999 -9999 -9999 -9999 -9999 -9999 -9999 -9999 -9999 -9999 -9999 -9999 -9999 3214 3124 3065 3116 3117 3092 2965 2955 2756 2695 2587 2546 2641 2575 2563 2549 2543 2566 2522 2514 2531 2520 2502 2465 2448 2449 2444 2397 2396 2340 2330 2329 2321 2281 2262 2256 2256 2245 2242 2241 2240 2237 2237 2237 2237 2238 2237 2236 2238 2238 2238 2237 2236 2235 2233 2236 2235 2235 2235 2235 2234 2234 2233 2235 2236 2235 2236 2236 2237 2253 2262 2416 2384 2294 2266 2253 2256 2281 2300 2306 2293 2273 2272 2277 2283 2299 2311 2333 2347 2395 2415 2442 2459 2515 2604 2647 2681 2750 2846 2894 3030 3130 3327 3290 3396 3581 3705 3677 3642 3660 -9999 -9999 -9999 -9999 -9999 -9999 -9999 -9999 -9999 -9999 -9999 -9999 -9999 -9999 -9999 -9999 -9999 -9999 -9999 -9999 -9999 -9999 -9999 -9999 -9999 -9999 -9999 -9999 -9999 -9999 -9999 -9999 -9999 -9999 -9999 -9999 -9999 -9999 -9999 -9999 -9999 -9999 -9999 -9999 -9999 -9999 -9999 -9999 -9999 -9999 -9999 -9999 -9999 -9999 -9999 -9999 -9999 -9999 -9999 -9999 -9999 -9999 -9999 -9999 -9999 -9999 -9999 -9999 -9999 -9999 -9999 -9999 -9999 -9999 -9999 -9999 -9999 -9999 -9999 -9999 -9999 -9999 -9999 -9999 -9999
-9999 -9999 -9999 -9999 -9999 -9999 -9999 -9999 -9999 -9999 -9999 -9999 -9999 -9999 -9999 -9999 -9999 -9999 -9999 -9999 -9999 3112 2953 2958 3015 3042 3034 2995 2810 2718 2584 2579 2673 2693 2587 2577 2579 2565 2551 2546 2546 2528 2518 2472 2484 2462 2417 2393 2379 2371 2373 2347 2328 2277 2267 2260 2257 2248 2244 2241 2239 2238 2238 2237 2237 2237 2237 2235 2237 2237 2238 2238 2237 2236 2236 2235 2235 2235 2236 2235 2235 2234 2234 2234 2236 2235 2235 2236 2237 2238 2241 2284 2292 2285 2266 2264 2282 2328 2363 2367 2337 2299 2286 2279 2283 2312 2321 2355 2370 2410 2425 2468 2524 2561 2637 2662 2720 2734 2790 2835 2959 3027 3321 3467 3534 3626 3685 3728 3713 3662 -9999 -9999 -9999 -9999 -9999 -9999 -9999 -9999 -9999 -9999 -9999 -9999 -9999 -9999 -9999 -9999 -9999 -9999 -9999 -9999 -9999 -9999 -9999 -9999 -9999 -9999 -9999 -9999 -9999 -9999 -9999 -9999 -9999 -9999 -9999 -9999 -9999 -9999 -9999 -9999 -9999 -9999 -9999 -9999 -9999 -9999 -9999 -9999 -9999 -9999 -9999 -9999 -9999 -9999 -9999 -9999 -9999 -9999 -9999 -9999 -9999 -9999 -9999 -9999 -9999 -9999 -9999 -9999 -9999 -9999 -9999 -9999 -9999 -9999 -9999 -9999 -9999 -9999 -9999 -9999 -9999 -9999 -9999 -9999 -9999
-9999 -9999 -9999 -9999 -9999 -9999 -9999 -9999 -9999 -9999 -9999 -9999 -9999 -9999 -9999 -9999 -9999 -9999 -9999 -9999 -9999 -9999 3084 2943 2834 2851 2780 2742 2710 2699 2671 2637 2603 2572 2611 2617 2606 2596 2597 2594 2600 2566 2533 2500 2468 2429 2399 2373 2370 2361 2322 2296 2289 2275 2269 2264 2257 2249 2247 2242 2241 2239 2238 2237 2238 2237 2237 2236 2236 2237 2239 2238 2237 2238 2238 2237 2237 2236 2232 2244 2235 2236 2235 2234 2235 2235 2236 2237 2236 2236 2238 2239 2243 2251 2267 2319 2323 2365 2399 2446 2421 2325 2315 2316 2335 2348 2373 2358 2377 2424 2446 2489 2511 2532 2597 2632 2706 2747 2833 2891 2932 2981 3104 3229 3371 3559 3708 3781 3805 3822 -9999 -9999 -9999 -9999 -9999 -9999 -9999 -9999 -9999 -9999 -9999 -9999 -9999 -9999 -9999 -9999 -9999 -9999 -9999 -9999 -9999 -9999 -9999 -9999 -9999 -9999 -9999 -9999 -9999 -9999 -9999 -9999 -9999 -9999 -9999 -9999 -9999 -9999 -9999 -9999 -9999 -9999 -9999 -9999 -9999 -9999 -9999 -9999 -9999 -9999 -9999 -9999 -9999 -9999 -9999 -9999 -9999 -9999 -9999 -9999 -9999 -9999 -9999 -9999 -9999 -9999 -9999 -9999 -9999 -9999 -9999 -9999 -9999 -9999 -9999 -9999 -9999 -9999 -9999 -9999 -9999 -9999 -9999 -9999 -9999
-9999 -9999 -9999 -9999 -9999 -9999 -9999 -9999 -9999 -9999 -9999 -9999 -9999 -9999 -9999 -9999 -9999 -9999 -9999 -9999 -9999 -9999 3111 2994 2820 2804 2868 2871 2655 2659 2669 2650 2644 2622 2639 2571 2635 2619 2622 2607 2615 2555 2531 2487 2467 2416 2415 2396 2418 2359 2349 2316 2302 2274 2268 2264 2257 2250 2248 2242 2240 2239 2237 2238 2238 2238 2236 2237 2237 2235 2237 2235 2237 2238 2238 2241 2235 2233 2244 2291 2242 2237 2236 2234 2234 2234 2236 2237 2237 2236 2237 2238 2239 2253 2268 2358 2375 2391 2400 2409 2406 2347 2379 2448 2387 2320 2332 2358 2377 2420 2442 2477 2498 2513 2555 2589 2659 2680 2765 2833 2927 3051 3168 3241 3481 3595 3659 3700 3789 3907 -9999 -9999 -9999 -9999 -9999 -9999 -9999 -9999 -9999 -9999 -9999 -9999 -9999 -9999 -9999 -9999 -9999 -9999 -9999 -9999 -9999 -9999 -9999 -9999 -9999 -9999 -9999 -9999 -9999 -9999 -9999 -9999 -9999 -9999 -9999 -9999 -9999 -9999 -9999 -9999 -9999 -9999 -9999 -9999 -9999 -9999 -9999 -9999 -9999 -9999 -9999 -9999 -9999 -9999 -9999 -9999 -9999 -9999 -9999 -9999 -9999 -9999 -9999 -9999 -9999 -9999 -9999 -9999 -9999 -9999 -9999 -9999 -9999 -9999 -9999 -9999 -9999 -9999 -9999 -9999 -9999 -9999 -9999 -9999 -9999
